# .PCD v0.7 - Point Cloud Data file format
VERSION 0.7
FIELDS x y z
SIZE 4 4 4
TYPE F F F
COUNT 1 1 1
WIDTH 367
HEIGHT 1
VIEWPOINT 0 0 0 1 0 0 0
POINTS 367
DATA ascii
-0.0025332232 -0.032733724 -0.030258339
0.0040603778 -0.032819048 -0.030444127
-0.01008126 -0.021722941 -0.030000594
-0.0045893556 -0.024869697 -0.03101074
0.0050440324 -0.02493575 -0.03133969
0.011345865 -0.022962483 -0.030403526
-0.011574017 -0.013839363 -0.030607006
-0.0049095252 -0.015154372 -0.032218602
0.0053064222 -0.01476987 -0.032497831
0.012849785 -0.014291757 -0.031083919
-0.012641393 -0.0044633099 -0.031210182
-0.0048492914 -0.0042366898 -0.032538235
0.004772245 -0.0046052025 -0.032956187
0.013813918 -0.0048538512 -0.031715907
-0.013552791 0.0052260119 -0.031719804
-0.005111564 0.0049930038 -0.033510458
0.0050545242 0.0050631566 -0.033710234
0.014271834 0.0051343255 -0.032204479
0.020385878 0.0077311462 -0.030347802
-0.020682409 0.016232053 -0.030551223
-0.014466016 0.015047108 -0.032581523
-0.0051842146 0.014891318 -0.034699939
0.0050743888 0.015104067 -0.034944974
0.014675314 0.01505423 -0.033056207
0.021518901 0.015945593 -0.030890785
-0.021887658 0.025965307 -0.031259604
-0.014767382 0.025081303 -0.033694979
-0.0051421938 0.025046077 -0.036336575
0.0048682657 0.024768546 -0.036437802
0.014882345 0.024977561 -0.033878066
0.022381034 0.025604153 -0.031529445
-0.022198807 0.032739595 -0.031319182
-0.015439071 0.032208089 -0.033890069
-0.0047655972 0.032433581 -0.036955383
0.0047701346 0.032428689 -0.037093058
0.014997944 0.032553274 -0.034781981
0.022583352 0.032657072 -0.031397894
-0.012993587 -0.050740458 -0.022001432
-0.0047585121 -0.050670877 -0.023388805
0.0047835973 -0.050525423 -0.024138436
0.014193569 -0.05035929 -0.022795899
0.021186553 -0.050211135 -0.020396775
-0.020295732 -0.04129697 -0.020206459
-0.014530396 -0.044591334 -0.023443028
-0.005066256 -0.043980196 -0.025882697
0.0047809198 -0.044389121 -0.026307007
0.014726946 -0.044533126 -0.024864491
0.021971622 -0.044416748 -0.021580389
-0.021125859 -0.034074746 -0.021190643
-0.014543059 -0.034627229 -0.024104731
-0.0052959952 -0.035614152 -0.026232064
0.0054471828 -0.035636775 -0.02589613
0.014320323 -0.034802858 -0.025229629
0.02274866 -0.034827676 -0.022381777
-0.021946276 -0.02401996 -0.021938898
-0.014960452 -0.024786962 -0.025292456
-0.0052948138 -0.02537762 -0.027046358
0.0050193937 -0.025015911 -0.026709901
0.015310358 -0.024959151 -0.025406942
0.023565281 -0.024594657 -0.022877924
-0.022469161 -0.015130992 -0.022580044
-0.015574583 -0.014917692 -0.025860593
-0.0051561603 -0.015053701 -0.027938906
0.0047254837 -0.015096055 -0.027953006
0.016092004 -0.015223633 -0.025742888
0.023956638 -0.014652906 -0.023726113
-0.023401845 -0.0043530748 -0.023349548
-0.016280172 -0.0053036371 -0.027162379
-0.0052298717 -0.0076165013 -0.02860273
0.005155805 -0.0077047646 -0.028530577
0.015888752 -0.0054740882 -0.026768411
0.024012491 -0.0046174359 -0.024109067
-0.024265341 0.0050649131 -0.024221748
-0.016844045 0.0040717497 -0.028340194
0.016720774 0.0044592498 -0.028495902
0.024637202 0.0050793048 -0.02498175
0.030685941 0.006645713 -0.020726858
-0.030396424 0.017017452 -0.020984812
-0.024988914 0.015024118 -0.024979612
-0.018023979 0.014014157 -0.028451269
0.018515641 0.01435627 -0.029179635
0.025444563 0.015137877 -0.025592154
0.03112766 0.015587021 -0.022030979
-0.031463087 0.02521765 -0.021827463
-0.025613027 0.025101488 -0.025899237
-0.018980201 0.02308947 -0.029427189
0.019523067 0.021361677 -0.029684423
0.026122907 0.024912648 -0.026331464
0.031749055 0.025732238 -0.02240286
-0.031529196 0.032634303 -0.022201965
-0.026262151 0.032580823 -0.026414637
-0.019928306 0.030119827 -0.029945385
0.026487868 0.032680377 -0.027157506
0.031730857 0.032887481 -0.022513855
-0.022238825 -0.050748836 -0.013264124
-0.01496296 -0.050767384 -0.014885185
-0.0050432431 -0.050634276 -0.015136871
0.0049186051 -0.05047635 -0.01523979
0.014897817 -0.050310396 -0.014857155
0.023133727 -0.050173141 -0.014320989
-0.023162663 -0.044421777 -0.014823756
-0.015207594 -0.044045206 -0.015285325
-0.004771681 -0.044777106 -0.014914196
0.0046730707 -0.044800293 -0.014560062
0.015333315 -0.043760736 -0.015246293
0.025820095 -0.044767708 -0.014881953
0.030253181 -0.042632844 -0.010813361
-0.024211682 -0.03475986 -0.014250915
-0.017587416 -0.03573145 -0.017544921
0.017479094 -0.035719648 -0.017669251
0.02500711 -0.035157043 -0.014869644
0.030918928 -0.033930235 -0.01162415
-0.025326988 -0.024766611 -0.014943828
-0.01901919 -0.028174553 -0.019031158
0.019030852 -0.027914895 -0.019084033
0.025348207 -0.024918748 -0.015903911
0.031668898 -0.025258426 -0.012533943
-0.030398894 -0.013724964 -0.01154335
-0.026035847 -0.01526426 -0.015642604
0.026008671 -0.015077142 -0.015675534
0.032110367 -0.014616597 -0.013994094
-0.031072777 -0.0041256729 -0.012899434
-0.027121566 -0.0055047697 -0.016146852
0.027014231 -0.005795808 -0.016184118
0.032521628 -0.0044597643 -0.014217128
-0.031830315 0.0056749596 -0.013648314
-0.028529886 0.0047192983 -0.016884333
0.028606536 0.0048954398 -0.018070156
0.033038188 0.0053005936 -0.014335703
-0.032561969 0.014996943 -0.014207296
-0.02876758 0.014618873 -0.017812677
0.029477706 0.013746146 -0.019132089
0.03383293 0.015015773 -0.014880095
-0.033752777 0.025072845 -0.014695563
-0.029422613 0.023793586 -0.019057214
0.034877494 0.024684334 -0.015054192
-0.034812823 0.032501616 -0.014609174
0.035737362 0.03266941 -0.0148728
-0.023834018 -0.050723515 -0.0045723645
-0.015345179 -0.050681431 -0.0051111984
-0.0050428393 -0.050533265 -0.0052176695
0.0049434472 -0.050381359 -0.0052766148
0.014905118 -0.050221104 -0.0049018217
0.024878133 -0.050073881 -0.0054037254
0.030209968 -0.050006539 -0.006262613
-0.025564406 -0.044173434 -0.0049159485
-0.014863127 -0.044850186 -0.0050146626
-0.0043340395 -0.045475911 -0.0046586017
0.0048816022 -0.045451671 -0.004795887
0.014786983 -0.044896092 -0.0049198633
0.024214564 -0.044095173 -0.0045920699
0.031769663 -0.045734309 -0.0047321655
-0.030263945 -0.031433646 -0.0025603131
-0.026694641 -0.035148144 -0.0052480153
0.025869466 -0.034796275 -0.0051087881
0.032846976 -0.034979425 -0.004882683
-0.030870408 -0.024646971 -0.0042341948
-0.027745774 -0.025400521 -0.0060799466
0.028554743 -0.025580892 -0.0052916966
0.033639289 -0.024699762 -0.0045721713
-0.032024581 -0.01503617 -0.0054264162
-0.028617425 -0.014876672 -0.0055000773
0.029329496 -0.014890619 -0.0077975038
0.033410765 -0.014945891 -0.0043796264
-0.03252111 -0.0044749905 -0.0050222087
-0.028918756 -0.0079758493 -0.0061703096
0.029409409 -0.0086254179 -0.0079850089
0.034479275 -0.0047885519 -0.0047511444
-0.033789046 0.004983603 -0.0050043738
0.035556987 0.0050237793 -0.0051773102
-0.03511681 0.01519587 -0.0049843523
0.036907677 0.014817435 -0.0051338132
-0.036426526 0.0251351 -0.0048490916
0.037863147 0.024624724 -0.0053847386
0.040290546 0.027508771 -0.0021276914
-0.037680808 0.032444213 -0.0048646182
0.038270019 0.033244219 -0.0060027856
0.040510859 0.033585709 -0.0033569203
-0.023929151 -0.050619576 0.004935862
-0.015163469 -0.050580557 0.0046088067
-0.00507278 -0.050440766 0.0045830472
0.0048295613 -0.050283991 0.0049739704
0.015244992 -0.050120659 0.0048241005
0.021926077 -0.050035287 0.0029166411
-0.02607403 -0.04399848 0.0050369962
-0.014776111 -0.044942036 0.0052954545
-0.00334434 -0.045846518 0.0043459088
0.0033602612 -0.04586279 0.0042619845
0.014764158 -0.045036029 0.0051202513
0.024799459 -0.045826025 0.0053651771
0.032121878 -0.045493979 0.0047059739
-0.030331787 -0.032567903 0.0033744527
-0.026981873 -0.035724584 0.0054228357
0.026435239 -0.035013098 0.0052713719
0.033375435 -0.035420824 0.0048384792
-0.031093132 -0.025235929 0.0051587294
-0.028052257 -0.025019929 0.0052101007
0.0288193 -0.026103754 0.0056454595
0.033758957 -0.024316628 0.0045821466
-0.032607209 -0.014710825 0.00475766
-0.029157808 -0.014886179 0.0051594628
0.029788699 -0.015127918 0.0089833131
0.033442456 -0.014901768 0.0044189696
-0.032959279 -0.0045352327 0.0047013285
-0.02927128 -0.0083344402 0.0060196556
0.029777845 -0.0086275358 0.0093521504
0.034341473 -0.0050280038 0.0048550619
-0.033945646 0.0048630466 0.0051078615
0.035884872 0.0050026891 0.005078014
-0.035390697 0.014804367 0.0050183479
0.037228573 0.014946024 0.005042973
-0.036760233 0.025042016 0.0052702297
0.038144547 0.024454976 0.0052956529
0.040272318 0.026927009 0.0028303149
-0.037840933 0.032719105 0.0050402964
0.038398165 0.033152938 0.0056724553
0.040515468 0.032870654 0.0034909849
-0.022462223 -0.050530124 0.014039787
-0.014879286 -0.050476797 0.014923234
-0.00483335 -0.05034766 0.015046461
0.0050915624 -0.050188407 0.015465474
0.01346892 -0.050062068 0.014173232
-0.024262171 -0.04417628 0.014865914
-0.015251497 -0.044127207 0.015210316
-0.0045529129 -0.045068752 0.014998897
0.0046046027 -0.045129638 0.014585267
0.015785137 -0.045896254 0.015356116
0.025154615 -0.046628427 0.01546775
0.030756511 -0.044555973 0.012504999
-0.024908219 -0.034916911 0.014684814
-0.018454744 -0.035909899 0.018499035
0.019419301 -0.037188258 0.019305389
0.025140554 -0.035112277 0.0159424
0.031404145 -0.034523834 0.013331049
-0.030347502 -0.022794111 0.01108924
-0.025896344 -0.025355516 0.015440123
-0.019612009 -0.029113699 0.019583751
0.02644995 -0.024956366 0.015535882
0.032057706 -0.02460612 0.014221756
-0.030967642 -0.014702843 0.012511365
-0.026623957 -0.014972112 0.015958728
0.027374309 -0.014880154 0.014954131
0.032812662 -0.014904527 0.015047546
-0.031576514 -0.0042140423 0.013522894
-0.027231745 -0.0058311052 0.016279589
0.028075723 -0.0062140501 0.016619224
0.033101086 -0.0041914238 0.014466652
-0.032066625 0.00487414 0.014402608
-0.0286461 0.0041390923 0.017392736
0.029493494 0.0026986031 0.018968068
0.033514287 0.0052055079 0.014823847
-0.033162542 0.015208475 0.014685197
-0.0294862 0.013831514 0.018763151
0.034735315 0.015391637 0.015038037
-0.034246944 0.024962917 0.015084658
-0.029863082 0.020513123 0.019934183
0.036111422 0.024900498 0.01490262
-0.035654172 0.032618597 0.014804444
0.036664087 0.032971878 0.015132178
-0.020613546 -0.05053385 0.020485561
-0.013849379 -0.050387699 0.023279589
-0.0051555936 -0.050264448 0.025139885
0.0052979975 -0.050101224 0.025189243
0.011249475 -0.050023131 0.022824487
-0.021266285 -0.044678476 0.021560339
-0.014614161 -0.04474441 0.025418293
-0.0053866985 -0.043573145 0.024616307
0.0048350859 -0.043685418 0.024459433
0.015363735 -0.045489755 0.024747675
0.023148172 -0.045587007 0.023061825
-0.022145141 -0.03476999 0.022649137
-0.015161507 -0.035115544 0.025232771
-0.0057310192 -0.035002921 0.026764391
0.0051600682 -0.03471655 0.027464993
0.015639346 -0.034981228 0.025270453
0.023823628 -0.035015099 0.024213007
-0.022886433 -0.024545172 0.023132663
-0.015847757 -0.025237868 0.025847623
-0.0064913058 -0.026337316 0.028812552
0.0061204727 -0.027306041 0.029206315
0.016023258 -0.024938209 0.026975852
0.023827184 -0.024671882 0.024091214
-0.023140652 -0.014951603 0.023747735
-0.01557117 -0.01518837 0.026927033
-0.0089521185 -0.015060926 0.02958372
0.015413539 -0.015029291 0.027795123
0.024537379 -0.01477936 0.024544477
0.030224225 -0.012927007 0.020518335
-0.024012869 -0.0047539137 0.024377165
-0.016416283 -0.0060762707 0.027192449
-0.0089520914 -0.0087445322 0.029645404
0.01706719 -0.0065044845 0.028168425
0.025156852 -0.0048580836 0.025177909
0.030802304 -0.0046078069 0.021156855
-0.030469241 0.0066585685 0.020679904
-0.024940992 0.0050814888 0.025185345
-0.01856629 0.0041051451 0.028964641
0.019276973 0.0025503985 0.029682796
0.025909834 0.0050479993 0.025921581
0.031430934 0.0055889809 0.022134149
-0.031134592 0.015543737 0.021774895
-0.025709569 0.01478306 0.025855068
-0.019505879 0.011909906 0.029621286
0.026560914 0.014796846 0.02655527
0.031778105 0.015130791 0.022400999
-0.031618252 0.02582187 0.022737829
-0.02674187 0.024638597 0.026280619
0.027179202 0.024876274 0.02734914
0.032406013 0.025606021 0.022969278
-0.032076504 0.033035707 0.023240125
-0.027571809 0.03258853 0.026968012
0.027939158 0.032871213 0.027770579
0.032610964 0.032700576 0.023312073
-0.0019575558 -0.050130554 0.030474529
0.0017678528 -0.050106585 0.030378301
-0.010467793 -0.041789774 0.030167932
-0.0050086644 -0.044527125 0.031442773
0.0049263928 -0.045543086 0.031873055
0.011981511 -0.044223886 0.030752372
-0.011468294 -0.033620525 0.030770881
-0.0051546097 -0.035003133 0.032575607
0.005472553 -0.035086587 0.03309292
0.013116238 -0.034771197 0.031324182
-0.012672202 -0.024442598 0.031411812
-0.0047892914 -0.024029501 0.032891929
0.0045266198 -0.024216024 0.033132959
0.014173929 -0.024913333 0.03190716
-0.013916549 -0.014831401 0.032064084
-0.004558247 -0.015123993 0.032734033
0.0048894463 -0.015140804 0.033216625
0.014990685 -0.015118124 0.032468822
0.020352203 -0.012435436 0.030319534
-0.020457296 -0.0009619412 0.030148339
-0.014091852 -0.004355967 0.032336831
-0.0053022751 -0.0048362515 0.033996694
0.0048775766 -0.0049990676 0.034812413
0.014706305 -0.0043586395 0.033114552
0.021160102 -0.0044196215 0.030839233
-0.021171836 0.0057507777 0.03064548
-0.01465851 0.0052207713 0.033131018
-0.0051943706 0.0049416404 0.036105055
0.0051751109 0.0049123075 0.036492292
0.014860979 0.0048762565 0.03374894
0.021890925 0.0055710212 0.031478908
-0.021915242 0.015649324 0.031447634
-0.015093721 0.015070816 0.034194022
-0.005056696 0.014990523 0.037250087
0.0050118985 0.015145221 0.037583333
0.015047745 0.014921521 0.034736477
0.022682732 0.015469407 0.031673715
-0.022461118 0.0254003 0.031956401
-0.015049637 0.024936324 0.035458997
-0.0056504691 0.024659576 0.038151033
0.0056087007 0.024303775 0.038098671
0.015234807 0.024941707 0.035966974
0.023308791 0.025487613 0.032266729
-0.022985453 0.033314984 0.032373074
-0.015091407 0.032916117 0.036419664
-0.0055788411 0.032917872 0.038597729
0.0053118845 0.033019226 0.038581651
0.015272358 0.033297122 0.03709437
0.023463853 0.033218421 0.032907896
-0.0029838039 0.026069399 0.040380877
0.0038022692 0.026412088 0.040447086
-0.004299562 0.032835189 0.040719435
0.0051328768 0.033003051 0.040697165
0.010412643 0.033599973 0.040086139
