# .PCD v0.7 - Point Cloud Data file format
VERSION 0.7
FIELDS x y z
SIZE 4 4 4
TYPE F F F
COUNT 1 1 1
WIDTH 469
HEIGHT 1
VIEWPOINT 0 0 0 1 0 0 0
POINTS 469
DATA ascii
-0.01480632 -0.10420731 -0.022583993
-0.0049151815 -0.10525519 -0.02568038
0.0049803411 -0.10529868 -0.026118567
0.014696451 -0.10424795 -0.023839688
0.02110853 -0.10221167 -0.020984521
-0.015128338 -0.095140375 -0.0235976
-0.005000338 -0.095132828 -0.027953476
0.0051647434 -0.094989017 -0.028566603
0.015334995 -0.095097251 -0.025124107
0.021166839 -0.094366476 -0.021043887
-0.015110288 -0.085037984 -0.023717262
-0.005042701 -0.084878758 -0.027913712
0.0052153035 -0.085239664 -0.028517919
0.014969318 -0.084872589 -0.025449306
0.021234715 -0.084255874 -0.021144724
-0.02001645 -0.075333081 -0.020058841
-0.015338015 -0.074923657 -0.023592267
-0.0050722561 -0.074904926 -0.02795556
0.0050587635 -0.075091176 -0.028586539
0.015178689 -0.074720971 -0.025378294
0.021347633 -0.075127624 -0.021061487
-0.020066381 -0.064761385 -0.020105351
-0.015008714 -0.065173827 -0.023751678
-0.0049681021 -0.065105379 -0.027943306
0.0051281461 -0.064906545 -0.028583717
0.015248604 -0.065110765 -0.025211331
0.021043915 -0.064465873 -0.020906281
-0.020039421 -0.055105459 -0.020106914
-0.015222877 -0.054955859 -0.023653585
-0.0052352357 -0.055224288 -0.027872605
0.0052890801 -0.055061743 -0.028528448
0.015415643 -0.054723859 -0.025014928
0.021188457 -0.05498518 -0.020883972
-0.020170003 -0.044457849 -0.020144695
-0.015192064 -0.04503008 -0.023700476
-0.0053383601 -0.045162711 -0.027825659
0.0052207038 -0.044923574 -0.028456237
0.015120518 -0.0450527 -0.025033165
0.020791847 -0.045049932 -0.021006616
-0.020141371 -0.034814358 -0.020260317
-0.015381255 -0.035082679 -0.023591045
-0.0052186046 -0.034939479 -0.027895648
0.0050381273 -0.034739707 -0.028546635
0.015012753 -0.034800764 -0.024975311
0.020665439 -0.03504952 -0.020748956
-0.020169687 -0.025524767 -0.020301942
-0.015217594 -0.025284702 -0.023770327
-0.0049648378 -0.024923103 -0.028009836
0.0048991088 -0.024960425 -0.028560722
0.015211391 -0.024978111 -0.024690855
0.020600047 -0.024826609 -0.020644899
-0.020241113 -0.014414448 -0.020367818
-0.015326693 -0.014753596 -0.023822144
-0.0050482336 -0.015063821 -0.028017934
0.005276694 -0.01493559 -0.028400408
0.015266067 -0.015217786 -0.024624715
0.020604888 -0.015443739 -0.020667015
-0.020238604 -0.0053480337 -0.020454565
-0.015412827 -0.0047623855 -0.023860965
-0.0052747037 -0.0049537383 -0.028080761
0.0053784717 -0.004792063 -0.028326528
0.015144665 -0.0049824119 -0.024626924
0.020591667 -0.0049413196 -0.020567514
-0.020330504 0.0047895433 -0.02028561
-0.015154942 0.0050688954 -0.02409609
-0.0051098424 0.0051837256 -0.0281679
0.005399528 0.0049247579 -0.028357448
0.015392219 0.0050212289 -0.024427656
0.020573612 0.0042860107 -0.020475319
-0.020353476 0.015774999 -0.020337226
-0.015000451 0.014646554 -0.024271825
-0.004933998 0.014938379 -0.02821964
0.0051874248 0.015335625 -0.028368985
0.015216502 0.015046995 -0.024482608
0.020579269 0.015655044 -0.020473721
-0.020436162 0.024825003 -0.020353513
-0.015462306 0.025100071 -0.02416314
-0.004972321 0.025014967 -0.028320746
0.0050566327 0.024781821 -0.028344864
0.015259637 0.024693448 -0.024342386
0.020548025 0.024817254 -0.020480432
-0.020644948 0.035600789 -0.020514578
-0.01503271 0.034891687 -0.024571221
-0.0049236324 0.035040423 -0.028337687
0.0053613386 0.034591541 -0.028294599
0.015135 0.035179488 -0.024290461
0.020385867 0.035098422 -0.020331115
-0.020431299 0.044954024 -0.020559
-0.015374419 0.044812225 -0.024054039
-0.0050162226 0.044966541 -0.028048031
0.0050891587 0.044769999 -0.028041495
0.014951175 0.044932097 -0.024056828
0.02014338 0.044939011 -0.020179315
-0.020629849 0.054944925 -0.020438345
-0.015303762 0.054951347 -0.024173375
-0.0051925778 0.055040307 -0.028152322
0.0051148389 0.055029973 -0.028009461
0.015138141 0.054960083 -0.02383158
0.020094149 0.054544758 -0.02009414
-0.020743961 0.062253017 -0.020733699
-0.013918092 0.064852886 -0.023693353
-0.0048478437 0.065830402 -0.025657577
0.0048556156 0.0657387 -0.025593024
0.014454668 0.064642757 -0.02299799
-0.0019437002 0.070537277 -0.020380937
0.0016445711 0.070249036 -0.020159891
-0.022607999 -0.10475464 -0.014593974
-0.015224795 -0.1076851 -0.015275757
-0.0049771923 -0.10731744 -0.015423174
0.0049828384 -0.10683227 -0.014993462
0.014952388 -0.10623231 -0.01538708
0.024018727 -0.1039317 -0.014762112
-0.023178816 -0.095400773 -0.014867833
-0.01972389 -0.094799086 -0.019745516
0.025829516 -0.094597876 -0.015035307
-0.023107598 -0.08472725 -0.015416378
-0.019707542 -0.086866677 -0.019789623
0.025817793 -0.085113019 -0.015035565
-0.023703717 -0.075143956 -0.015115037
0.025879018 -0.075020902 -0.015191125
-0.023659289 -0.065078072 -0.015332843
0.025472563 -0.064739607 -0.015270391
-0.023883149 -0.054979198 -0.015042617
0.025377462 -0.055072993 -0.015255866
-0.024132591 -0.044950597 -0.01492403
0.02529915 -0.045055401 -0.015113112
-0.024196645 -0.034859605 -0.015022208
0.025108596 -0.034708925 -0.015107353
-0.024105452 -0.024948487 -0.01524318
0.024780832 -0.024780886 -0.015343468
-0.02441394 -0.014899277 -0.014997737
0.02479125 -0.014676156 -0.015310212
-0.024362119 -0.00499414 -0.015203648
0.024852194 -0.0051800841 -0.014964132
-0.024473995 0.0050882883 -0.015148912
0.024752134 0.0050953301 -0.015260955
-0.024772082 0.014904296 -0.014833633
0.024580589 0.015254439 -0.015227378
-0.024732271 0.02493448 -0.01508263
0.024436329 0.025234085 -0.01525881
-0.024782995 0.035083596 -0.015178287
0.024227047 0.034862734 -0.015286948
-0.024449658 0.044879057 -0.015325712
0.023683356 0.044900615 -0.01547227
-0.024640225 0.054916177 -0.015177789
0.023913654 0.055042353 -0.014892201
-0.023597063 0.064536318 -0.014531473
-0.016320176 0.068435602 -0.016597394
-0.0083276508 0.06968502 -0.019471699
0.0081695486 0.069561563 -0.01936923
0.016110456 0.068455666 -0.016218565
0.023112662 0.064289875 -0.01447522
-0.014346313 0.07469894 -0.014133601
-0.0052965102 0.075109974 -0.019081291
0.0054416717 0.074717417 -0.018559171
0.013411221 0.074640393 -0.013585804
-0.014446702 0.085213251 -0.014131476
-0.0050139353 0.085077055 -0.019132996
0.0048933472 0.084777288 -0.018776251
0.013651893 0.084633186 -0.013400611
-0.01370443 0.094769642 -0.013517296
-0.0049256664 0.094802551 -0.018259231
0.0050305366 0.094923116 -0.017970823
0.01370471 0.094806373 -0.013381178
-0.012970034 0.10124368 -0.012835432
-0.0046881069 0.100998 -0.01400744
0.0046766335 0.10091039 -0.014201107
0.012596362 0.10080104 -0.012080675
-0.024785751 -0.10538919 -0.0050782338
-0.01526916 -0.10775474 -0.0048559932
-0.0046878816 -0.10716099 -0.0051869606
0.005423604 -0.10653516 -0.0050576157
0.015048604 -0.10592321 -0.0051121609
0.025826016 -0.1044225 -0.0049963593
0.030112442 -0.10090314 -0.0030047568
-0.026777072 -0.095501624 -0.0050411397
0.029286806 -0.095237784 -0.0069342963
0.030196756 -0.095705859 -0.0017382348
-0.027173076 -0.084915377 -0.0049552596
0.029321201 -0.085626677 -0.0064519024
0.030394929 -0.083522558 -0.0023174903
-0.027590925 -0.075002931 -0.0046862001
0.029294353 -0.074905224 -0.0074639209
0.030206291 -0.075195983 -0.0026398199
-0.027596692 -0.064838558 -0.0050394624
0.029233756 -0.064762332 -0.006900901
0.030146915 -0.065719858 -0.0015689066
-0.027777819 -0.054700237 -0.0048325574
0.029255776 -0.054754905 -0.0057001612
0.03009589 -0.056106422 -0.00079439284
-0.027781501 -0.04537281 -0.0050562145
0.029253462 -0.045190331 -0.0049937633
0.030001368 -0.049498789 -0.0004213374
-0.027910966 -0.035184283 -0.0047846129
0.029123148 -0.034865454 -0.0048946021
-0.028084567 -0.024953173 -0.0050768503
0.028991707 -0.025172044 -0.005252569
-0.028126281 -0.015476802 -0.0049078171
0.02892427 -0.01512084 -0.0050098351
-0.028270749 -0.0050734612 -0.0052238493
0.028768582 -0.0049396679 -0.0051566497
-0.028499581 0.0051349457 -0.0049700597
0.028718453 0.004790084 -0.0048926808
-0.028675651 0.01498533 -0.0048707859
0.028587829 0.015147307 -0.0050335932
-0.02876278 0.025136869 -0.0049844589
0.028490255 0.024906125 -0.0051386692
-0.02870471 0.034652449 -0.0054088826
0.028393004 0.034894887 -0.0051446133
-0.02859723 0.045092095 -0.0050056777
0.027935416 0.045144405 -0.0053537833
-0.028830376 0.055273797 -0.00468393
0.027837221 0.05500254 -0.0048414357
-0.02599718 0.06570413 -0.0049206112
-0.019472688 0.069696583 -0.0096097998
0.019287137 0.069627836 -0.006877814
0.02534456 0.065755099 -0.0050908923
-0.020396123 0.074612901 -0.0020761904
-0.019031456 0.075117037 -0.0072322031
0.018077809 0.074843436 -0.0054325662
0.020008307 0.070201881 -0.00081617426
-0.020382021 0.084586605 -0.0022034759
-0.019030221 0.085489973 -0.0074354629
0.018274873 0.085270524 -0.0051641897
-0.020322643 0.09441641 -0.0024062442
-0.018478801 0.095103666 -0.0071417554
0.018283375 0.095039904 -0.0051032738
-0.020105461 0.1001932 -0.0012171475
-0.014503349 0.10097347 -0.00485388
-0.0051644854 0.10032409 -0.004766563
0.0051518506 0.10040745 -0.0048676198
0.014584953 0.10108703 -0.0049619521
-0.024633359 -0.10546171 0.0047085807
-0.0150156 -0.10770787 0.0048284447
-0.0049638259 -0.1070691 0.0049544522
0.0049019544 -0.10641601 0.005015377
0.014974949 -0.10575256 0.0049165636
0.025769699 -0.10419833 0.0053771157
0.03016274 -0.10037949 0.0013426368
-0.026727039 -0.094989434 0.0052834391
0.029456219 -0.094624415 0.0070985463
0.030247251 -0.094692454 0.0020488191
-0.026954932 -0.085014746 0.0051910793
0.029435277 -0.085057482 0.0072318153
0.030339111 -0.084608972 0.0026070797
-0.027360708 -0.074950881 0.0052073738
0.029447278 -0.075392246 0.0081651006
0.030328438 -0.075420931 0.0030553844
-0.027445881 -0.065298364 0.00495478
0.029450934 -0.064154483 0.0074454546
0.030153498 -0.06496875 0.0028643108
-0.027556226 -0.054673646 0.0049228533
0.0295635 -0.054226235 0.0054921592
0.030060466 -0.055862214 0.00090142986
-0.027518796 -0.045148596 0.0052576237
0.029451255 -0.045055203 0.0052187201
0.030011248 -0.048726026 0.00038642081
-0.027693763 -0.035166249 0.0051326663
0.029263433 -0.035123177 0.0051736101
-0.027727488 -0.024951339 0.0055370294
0.029196685 -0.025170647 0.0051449714
-0.027900517 -0.015395498 0.0047413413
0.029070435 -0.015014066 0.0050950805
-0.02813798 -0.0048589497 0.0050623836
0.028852517 -0.0050577517 0.0051695681
-0.028406775 0.0050683767 0.0047165924
0.028785417 0.0046152719 0.0051168459
-0.028511476 0.014972126 0.0050299652
0.028719062 0.015158687 0.0048242984
-0.028709251 0.024991632 0.0047153379
0.028550759 0.025297385 0.0050350935
-0.028747497 0.035245664 0.0049863467
0.028394507 0.034948364 0.0052095521
-0.028586181 0.045044843 0.00496272
0.028070992 0.045171149 0.005238317
-0.028626641 0.055222001 0.0051433677
0.027971866 0.054927114 0.0049737692
-0.026008714 0.065634109 0.0049156514
-0.019670015 0.069507383 0.0089841308
0.019388214 0.069784693 0.0070447456
0.025850659 0.065364502 0.0049341605
-0.020402165 0.074559391 0.002335378
-0.018975832 0.075185105 0.0072384286
0.018456466 0.074970163 0.004891675
0.020046795 0.07013458 0.001197931
-0.020317107 0.085356995 0.002423971
-0.019016685 0.084692165 0.0072978889
0.018483821 0.085032478 0.005055964
-0.020275852 0.094718233 0.0025159977
-0.018945262 0.095382243 0.0075814817
0.018385049 0.094956495 0.0051815598
-0.02005605 0.10032962 0.0035117902
-0.015343837 0.10095362 0.0048463079
-0.0049448819 0.10033124 0.0046782629
0.0045961114 0.10044757 0.0049558142
0.014202368 0.10100864 0.0044158744
-0.02272536 -0.10444843 0.01406537
-0.015540477 -0.10742464 0.015319312
-0.0048469892 -0.10705642 0.015033548
0.0049708495 -0.10617141 0.014564089
0.014980841 -0.10543802 0.015094863
0.024344811 -0.10377321 0.014638688
-0.023042629 -0.094983712 0.014989631
-0.019590836 -0.095071986 0.019517912
0.026042812 -0.094845444 0.015278997
-0.023319742 -0.08492846 0.014954614
-0.01979829 -0.085489064 0.019802213
0.026339212 -0.084883951 0.014977978
-0.02346058 -0.074709818 0.015320284
0.026284207 -0.07496506 0.01503606
-0.023675144 -0.064758413 0.015279328
0.025861911 -0.065278389 0.015493526
-0.023623804 -0.055241514 0.015413291
0.025888573 -0.054769959 0.015232455
-0.023863694 -0.045159515 0.015142411
0.025733421 -0.045232378 0.015264534
-0.023923937 -0.034836162 0.015311904
0.025782984 -0.034974579 0.014945504
-0.023917183 -0.025120297 0.015492944
0.025372438 -0.02481785 0.015359863
-0.024180107 -0.014853631 0.015463869
0.025357381 -0.014932972 0.015104725
-0.024415368 -0.0045200586 0.01513735
0.025158528 -0.0050016209 0.01522986
-0.02434087 0.0049673892 0.015421131
0.024991175 0.0048726648 0.015338106
-0.024625272 0.015153293 0.015137682
0.024938615 0.014872523 0.01519037
-0.024794539 0.025245426 0.015163409
0.024756217 0.025091052 0.015322449
-0.024809413 0.035121448 0.015237855
0.024561387 0.034929611 0.015352106
-0.024565067 0.044935908 0.015285738
0.024291366 0.044882093 0.015114436
-0.024639431 0.054832876 0.015423491
0.024027165 0.054938599 0.015402465
-0.023900392 0.064460225 0.014576699
-0.016875321 0.068254024 0.016485658
-0.0075770142 0.069663242 0.019724069
0.0081051383 0.069762342 0.019452007
0.016685601 0.068336435 0.016214527
0.023357678 0.064500071 0.014622631
-0.014205396 0.074713968 0.014129597
-0.0055164522 0.075012147 0.019142285
0.0054178396 0.075282887 0.018957941
0.013893372 0.074748009 0.013640185
-0.014555178 0.084859684 0.013851295
-0.0051276316 0.08491727 0.019214623
0.0061684116 0.084934823 0.018723417
0.013822027 0.085269004 0.013700408
-0.014406855 0.0950635 0.014039987
-0.0058840467 0.095371008 0.01917373
0.0055764597 0.095067702 0.018677037
0.013636598 0.095358305 0.013667119
-0.012918324 0.10087381 0.012679768
-0.0048031081 0.10078058 0.014510229
0.0051209349 0.10078125 0.014405807
0.012859071 0.1008198 0.012008801
-0.014089991 -0.10482591 0.023094909
-0.0051200944 -0.1052922 0.025412396
0.0046890476 -0.10448597 0.025360765
0.014773951 -0.10336114 0.023979509
0.021037478 -0.10231942 0.020904815
-0.01471919 -0.095048793 0.023853753
-0.0051989788 -0.095016599 0.028281439
0.0050530308 -0.09495727 0.028731329
0.015350133 -0.094877928 0.02538036
0.021278296 -0.094794676 0.021321265
-0.015061742 -0.085008495 0.023910718
-0.0050510601 -0.085187346 0.028387111
0.0052014403 -0.084960885 0.028691398
0.015099213 -0.085013211 0.025509689
0.02148618 -0.084697872 0.021359755
-0.020043287 -0.074005917 0.020117568
-0.015215651 -0.075070024 0.023959856
-0.0049886731 -0.075005807 0.028424095
0.0048479317 -0.07553912 0.028723229
0.015257268 -0.074695446 0.025415147
0.021598812 -0.075309105 0.021241168
-0.020159837 -0.065081052 0.020152254
-0.015543188 -0.065101773 0.023785641
-0.0050806394 -0.06507156 0.028442791
0.0050112288 -0.064690515 0.028686373
0.015349001 -0.065041497 0.025312278
0.021263545 -0.064949833 0.021343347
-0.020252312 -0.053670317 0.020223459
-0.015362867 -0.055170119 0.023930438
-0.0050456827 -0.055153389 0.028437899
0.0051626158 -0.055085398 0.028629465
0.015157368 -0.05492137 0.025314836
0.021103011 -0.055501781 0.021336306
-0.020304659 -0.04504063 0.020300448
-0.015536534 -0.045049891 0.023864981
-0.0049533602 -0.045394141 0.028487522
0.0050340565 -0.045106821 0.02861603
0.015127672 -0.045037739 0.025236309
0.02104632 -0.045418352 0.021256782
-0.020312626 -0.034706466 0.020292556
-0.015481744 -0.034995709 0.0239868
-0.0048888368 -0.035207581 0.0285265
0.004977609 -0.034901157 0.028561272
0.014906675 -0.034680273 0.025214752
0.021065926 -0.03477329 0.021200534
-0.020256991 -0.024629468 0.020341292
-0.015262302 -0.02502824 0.02417824
-0.0050046821 -0.024796952 0.028520485
0.0050063939 -0.0249405 0.028560126
0.015069135 -0.025333762 0.025065636
0.021041015 -0.02536539 0.021054998
-0.020368833 -0.01491856 0.020567749
-0.015382602 -0.015001366 0.02426669
-0.005010196 -0.014943321 0.028513316
0.005329486 -0.015151843 0.028575215
0.015006241 -0.014908507 0.025222166
0.020950718 -0.015272651 0.021062169
-0.020429228 -0.0050852667 0.020366399
-0.015472906 -0.0049566035 0.024317486
-0.0048724613 -0.0050026346 0.028480243
0.0049062921 -0.0051031685 0.028649168
0.015418218 -0.0046785772 0.024880843
0.020811722 -0.0052093961 0.021139102
-0.020441582 0.0049552503 0.020506119
-0.015040558 0.005413447 0.024654938
-0.0050359415 0.0048103537 0.0286019
0.0051272213 0.004910042 0.028739225
0.015167436 0.0051576393 0.025063369
0.020852309 0.0049946029 0.020891091
-0.02067128 0.015201822 0.020555474
-0.014950861 0.015043622 0.024792846
-0.0050122989 0.014984679 0.028618647
0.0049613593 0.014758625 0.028767334
0.015078639 0.015124043 0.025057871
0.020743655 0.014970683 0.020672543
-0.02064508 0.025107315 0.020672021
-0.015014861 0.024942728 0.024872487
-0.0049069962 0.024603428 0.028707381
0.0049319337 0.024823418 0.028784154
0.015236041 0.025031967 0.02486131
0.020686219 0.025364097 0.020767514
-0.020739919 0.035090093 0.020656781
-0.015383778 0.034948982 0.024601245
-0.0051855678 0.034708656 0.028685372
0.0049648415 0.034967843 0.028777685
0.015306522 0.034763906 0.024662508
0.020559834 0.035272155 0.020715073
-0.02060245 0.044595074 0.020441623
-0.015230955 0.04512937 0.024562877
-0.0050974349 0.04501272 0.028577462
0.0052191638 0.044514269 0.02853681
0.015376036 0.045475442 0.024209544
0.020382861 0.044777982 0.020444233
-0.02068858 0.054685898 0.020687649
-0.015117849 0.054903291 0.024719918
-0.0050651007 0.055130374 0.028664343
0.004986404 0.055175994 0.028597653
0.015290112 0.055063676 0.024326215
0.020296428 0.055344176 0.020507796
-0.020809889 0.062649481 0.020893862
-0.014479622 0.064476095 0.023864623
-0.0049821851 0.065780878 0.026007902
0.0050573051 0.065895878 0.025699833
0.0146796 0.064455949 0.02355152
0.020449746 0.062587246 0.020482056
-0.0021055166 0.070844337 0.020382537
0.001544473 0.070726201 0.020450912
-0.00054689654 0.084054932 0.020014955
0.0011125789 0.085826844 0.020046905
-0.0014137622 0.092861436 0.020115888
0.00093976071 0.092459634 0.020080825
