# .PCD v0.7 - Point Cloud Data file format
VERSION 0.7
FIELDS x y z
SIZE 4 4 4
TYPE F F F
COUNT 1 1 1
WIDTH 755
HEIGHT 1
VIEWPOINT 0 0 0 1 0 0 0
POINTS 755
DATA ascii
-0.041664306 -0.07123363 -0.030214272
-0.034688659 -0.072935522 -0.030678272
-0.024994615 -0.072640315 -0.03080244
-0.014855085 -0.0727171 -0.030634848
-0.0052451245 -0.072459139 -0.030655384
0.0047975779 -0.072879925 -0.030515807
0.014883419 -0.072667852 -0.030309692
0.024062105 -0.071532108 -0.030172652
0.034564961 -0.071132675 -0.030092912
0.040673908 -0.070865147 -0.030018391
-0.041824166 -0.065567277 -0.030419368
-0.034891538 -0.06533993 -0.030929953
-0.02474976 -0.064394049 -0.031146713
-0.015572297 -0.065285355 -0.031083815
-0.0048670406 -0.064754546 -0.03100352
0.0052889935 -0.065162726 -0.030877462
0.01492082 -0.065011688 -0.03075677
0.025087738 -0.064975187 -0.030548535
0.034816794 -0.064972803 -0.030267844
0.040996697 -0.065171584 -0.030057585
-0.041947238 -0.055298515 -0.030405622
-0.034968335 -0.054659918 -0.030907663
-0.02492195 -0.054901026 -0.031277452
-0.014710992 -0.054918785 -0.03125054
-0.0051119369 -0.055047754 -0.031197097
0.0051620682 -0.054513555 -0.031091327
0.015176539 -0.055024557 -0.030944996
0.025008891 -0.054658167 -0.030710258
0.034958448 -0.054976325 -0.030358102
0.041270688 -0.055788722 -0.030132145
-0.041843265 -0.044683672 -0.030427825
-0.035124384 -0.045068882 -0.03092064
-0.024969818 -0.044831876 -0.031411301
-0.015027495 -0.045061875 -0.031410236
-0.0053586629 -0.045310453 -0.031377167
0.0049785255 -0.044826061 -0.031278808
0.015117506 -0.045240197 -0.031068023
0.024884256 -0.045306567 -0.030820169
0.03482455 -0.044824123 -0.030469574
0.042043902 -0.044466965 -0.030194907
-0.041861888 -0.035254113 -0.030506929
-0.034922298 -0.035053033 -0.031041957
-0.024695611 -0.034914333 -0.0315255
-0.01520732 -0.035447448 -0.031546436
-0.0046538697 -0.035217647 -0.031538941
0.005264814 -0.034999639 -0.031410825
0.014823258 -0.034955949 -0.031185294
0.025239423 -0.0348447 -0.030926928
0.034560345 -0.034736615 -0.030599181
0.041750114 -0.034673508 -0.030299619
-0.041737013 -0.023880789 -0.030594526
-0.035015464 -0.025107374 -0.031132022
-0.025147798 -0.024979794 -0.03162175
-0.015108909 -0.024818582 -0.031687126
-0.0047972272 -0.024851695 -0.031661835
0.0049424064 -0.025030065 -0.031547341
0.015396401 -0.025037944 -0.031285018
0.025021469 -0.024838926 -0.031045981
0.035093851 -0.024808602 -0.03065531
0.041684814 -0.024615232 -0.030318087
-0.041408625 -0.015201517 -0.030691825
-0.035132281 -0.014884179 -0.031201866
-0.024444658 -0.015145123 -0.031739663
-0.015199828 -0.01495265 -0.031803705
-0.0045933006 -0.014441156 -0.031762935
0.0048924293 -0.015312525 -0.031675082
0.01473865 -0.015314053 -0.031432543
0.0248318 -0.015174538 -0.031150423
0.035076138 -0.015225909 -0.030662654
0.04170128 -0.015514456 -0.03029952
-0.041350234 -0.0051311068 -0.030620353
-0.035181511 -0.0055806041 -0.031274069
-0.025239348 -0.0048700697 -0.031782627
-0.014612979 -0.0043364922 -0.031861261
-0.0049530705 -0.0047821915 -0.03181275
0.0052695307 -0.0048713586 -0.031730268
0.015101131 -0.0054075108 -0.031522084
0.02500426 -0.0049661137 -0.031214258
0.035214342 -0.0046704784 -0.030673932
0.041545674 -0.0050451043 -0.030317781
-0.040889755 0.0043261158 -0.030454123
-0.034918614 0.0046120393 -0.031347096
-0.024972733 0.0049794395 -0.031805392
-0.014605099 0.0050702682 -0.031887457
-0.0052410145 0.0047685322 -0.031841669
0.0047731381 0.0051501621 -0.031747829
0.014998569 0.0049804263 -0.031580422
0.025201906 0.0050867172 -0.03125637
0.03507638 0.0051833089 -0.030755257
0.041765235 0.0047769835 -0.030365188
-0.040912792 0.01435594 -0.030307708
-0.03504407 0.014962032 -0.031356063
-0.025151065 0.014663506 -0.031803746
-0.015734799 0.015022859 -0.031918507
-0.0053127455 0.015184013 -0.031870794
0.0046446649 0.015090929 -0.03174977
0.01509866 0.014771132 -0.031537689
0.024860313 0.015099067 -0.031249324
0.03475732 0.015348922 -0.030843008
0.041922633 0.014862148 -0.030445525
-0.041221678 0.025495071 -0.030614989
-0.035263088 0.025222676 -0.031385053
-0.024609806 0.025210008 -0.031817608
-0.015207412 0.024822859 -0.031886689
-0.0049230088 0.024463253 -0.031798609
0.0047856043 0.024914129 -0.031645261
0.01512027 0.025358317 -0.031389736
0.025278918 0.025302442 -0.031107984
0.034884069 0.024831178 -0.030754095
0.042002436 0.025526209 -0.030459344
-0.041196812 0.035032075 -0.030790811
-0.034863416 0.034740649 -0.031419575
-0.02521896 0.034828745 -0.031633746
-0.015187884 0.034969844 -0.03149176
-0.0046683932 0.035474401 -0.031352304
0.0046751276 0.034863546 -0.031322654
0.014770457 0.034946021 -0.031224487
0.024929876 0.034543347 -0.030997498
0.035627931 0.034844708 -0.030674657
0.04177792 0.034875423 -0.030490397
-0.041065011 0.044430286 -0.030723872
-0.034812521 0.044884425 -0.031315666
-0.025345754 0.044705722 -0.03123362
-0.014866393 0.044956088 -0.031023525
-0.0049817157 0.045033742 -0.030912727
0.0046455902 0.04522926 -0.030831166
0.015280074 0.045188494 -0.030753193
0.024830004 0.04471777 -0.030755237
0.034864627 0.044945002 -0.030624557
0.041832171 0.045000922 -0.030468335
-0.041321531 0.054193143 -0.030404188
-0.034669437 0.05467182 -0.030888248
-0.025077233 0.054987509 -0.030612037
-0.01535283 0.055518955 -0.030361978
-0.0050646574 0.053764332 -0.030267246
0.0047428231 0.052829433 -0.030248534
0.015660251 0.052898608 -0.030202312
0.025078217 0.054812536 -0.030311864
0.035213608 0.054875717 -0.030339731
0.042499818 0.055739708 -0.030340284
-0.04112142 0.065231532 -0.030430323
-0.035029784 0.064949706 -0.030513529
-0.02600068 0.062795125 -0.030151283
-0.017255152 0.060670801 -0.030069685
0.027413707 0.061619811 -0.030086562
0.03555901 0.064800583 -0.030177096
0.042269137 0.065179393 -0.030272789
-0.041152682 0.074773602 -0.030362267
-0.035214629 0.074933536 -0.030344203
-0.029430965 0.07873781 -0.030034222
0.036035914 0.07482966 -0.03019526
0.042521376 0.075422287 -0.03034566
-0.040670872 0.083420336 -0.030248027
-0.034909319 0.085043393 -0.030434685
-0.029481642 0.081347093 -0.030034257
0.03749809 0.085196786 -0.030179434
0.042360611 0.085594699 -0.030447163
-0.040611904 0.095565759 -0.03026328
-0.03552974 0.095240772 -0.030571695
-0.029881569 0.09921366 -0.030024553
0.036243849 0.095741339 -0.030318484
0.04224832 0.094762117 -0.030626724
-0.040798735 0.1045267 -0.030471371
-0.034950223 0.10492472 -0.030748084
-0.029113395 0.106639 -0.030134393
0.028520465 0.1050081 -0.030091716
0.035163008 0.10488327 -0.030367892
0.042178623 0.10486892 -0.030551072
-0.041034758 0.11029195 -0.030435275
-0.035718605 0.11039019 -0.030277999
-0.043988615 -0.074656367 -0.025042076
-0.035021976 -0.077354215 -0.025414521
-0.025147406 -0.077436648 -0.025707446
-0.014919481 -0.077511549 -0.025908267
-0.0048755654 -0.077630483 -0.025885634
0.0052698199 -0.077543274 -0.02580546
0.015044129 -0.077860184 -0.025358075
0.025166014 -0.077324606 -0.026404606
0.034792606 -0.077197835 -0.026234806
0.043634918 -0.074933901 -0.025373966
-0.045546219 -0.064984813 -0.025585836
0.044856269 -0.065188564 -0.025839167
-0.045519274 -0.055374976 -0.025474234
0.045189675 -0.05504052 -0.02560454
-0.045436818 -0.044940863 -0.025061619
0.045403946 -0.045182504 -0.025571791
-0.045199905 -0.035175573 -0.025415044
0.045613218 -0.034674857 -0.025197621
-0.045280825 -0.025413265 -0.024613261
0.045679186 -0.024839798 -0.025228813
-0.044957392 -0.015060226 -0.025270909
0.045738883 -0.014524992 -0.025230613
-0.044684857 -0.0043852855 -0.025445102
0.045885276 -0.0049168132 -0.025310813
-0.044532891 0.0054589431 -0.024922347
0.045879904 0.0048902542 -0.025820786
-0.044191107 0.014855246 -0.025485661
0.046106894 0.015110493 -0.025256205
-0.044273883 0.024949787 -0.025486484
0.046153035 0.02514605 -0.025631614
-0.044329654 0.035162129 -0.025061684
0.04637238 0.035179123 -0.025166379
-0.044203795 0.044811752 -0.025162356
0.046449549 0.044737004 -0.025677986
-0.044015061 0.055137172 -0.025538361
-0.010790405 0.05982976 -0.029942969
-0.0043609473 0.058559049 -0.02987539
0.0051032351 0.058022503 -0.029818524
0.014798263 0.05797378 -0.029892299
0.020401129 0.059553485 -0.029977417
0.046544839 0.055192087 -0.02572483
-0.043950774 0.065237388 -0.025121605
-0.023564555 0.066969901 -0.029815054
-0.015018887 0.06542591 -0.02968519
-0.0050654337 0.064946637 -0.029432246
0.0049738456 0.065348491 -0.029316194
0.014933887 0.064630471 -0.029599745
0.024165226 0.066319048 -0.029784242
0.030539675 0.068424754 -0.029962489
0.046687607 0.064581797 -0.025546055
-0.043787505 0.07520327 -0.024989663
-0.030262828 0.072848216 -0.029979657
-0.024503801 0.075085625 -0.029610706
-0.015371315 0.074586138 -0.029126681
-0.005086509 0.075208493 -0.028829515
0.0048831673 0.07517837 -0.028820032
0.01517916 0.075095765 -0.029109463
0.024668893 0.074951194 -0.02949784
0.031273339 0.075229481 -0.029904692
0.04684256 0.075131685 -0.025304228
-0.043400168 0.085229084 -0.025580943
-0.030389836 0.088587366 -0.02993679
-0.024788152 0.084979005 -0.029463658
-0.014664974 0.085209481 -0.028596092
-0.0052262894 0.084819123 -0.028342677
0.0047585019 0.084963635 -0.028338498
0.015106183 0.085000396 -0.028732054
0.024982631 0.085473947 -0.029336149
0.032386616 0.084800638 -0.029830649
0.046619065 0.08513286 -0.025724666
-0.042964246 0.094951786 -0.025453769
-0.030371521 0.092330813 -0.029909221
-0.024935678 0.095233358 -0.029324275
-0.01516162 0.09521538 -0.028263614
-0.005238092 0.095162414 -0.027833818
0.004818771 0.095073313 -0.027934758
0.015098056 0.094763264 -0.0286295
0.024860024 0.094821803 -0.029378608
0.031531602 0.093825147 -0.029868947
0.045986023 0.094845213 -0.024858572
-0.042852938 0.10485929 -0.025283152
-0.024070565 0.10462926 -0.029439181
-0.015364164 0.10500106 -0.028358376
-0.0050186412 0.10568249 -0.028069863
0.0050761872 0.10486828 -0.028391391
0.015155722 0.10485906 -0.02906609
0.024316711 0.10479268 -0.029676173
0.034030713 0.10927924 -0.029868912
0.045583222 0.10495834 -0.025173057
-0.041438758 0.11085603 -0.023858232
-0.034876168 0.11265293 -0.02514937
-0.024984229 0.1132494 -0.02540978
-0.014942695 0.11343185 -0.025495891
-0.0051516704 0.11349074 -0.024866849
0.0048603062 0.11340157 -0.024765097
0.015175506 0.11302295 -0.025264071
0.024827 0.11274374 -0.024784194
0.034558993 0.11217229 -0.024768798
0.042708475 0.11142328 -0.024281763
-0.044938862 -0.074512102 -0.015340671
-0.035029311 -0.077245556 -0.015144304
-0.025336832 -0.077457234 -0.014979878
-0.015099192 -0.077695347 -0.014959583
-0.0049917791 -0.077918962 -0.015044394
0.0052273553 -0.078045361 -0.015271484
0.015302476 -0.078207567 -0.01491119
0.024907285 -0.07829091 -0.014828465
0.035190146 -0.078260042 -0.015032968
0.044381838 -0.075438596 -0.015323869
-0.046829004 -0.06474176 -0.015354408
0.04605677 -0.065148637 -0.014906019
-0.046760395 -0.054623306 -0.014721689
0.046272475 -0.054924533 -0.015001731
-0.046638422 -0.044819072 -0.014746671
0.046395574 -0.045002569 -0.015097823
-0.046513721 -0.034708966 -0.014917343
0.046551242 -0.035000965 -0.014979899
-0.046312511 -0.02541453 -0.015494781
0.046603892 -0.025084952 -0.015527228
-0.046134081 -0.014606702 -0.015437637
0.046658978 -0.015017114 -0.015458441
-0.04605354 -0.0047892318 -0.015075621
0.046826009 -0.0046818056 -0.015194654
-0.045969285 0.0051658135 -0.014949244
0.046928193 0.0048730653 -0.014925919
-0.045819521 0.014685897 -0.015032138
0.047014013 0.014918589 -0.01512245
-0.045634594 0.025190534 -0.015223628
0.047155112 0.025425391 -0.014696832
-0.045499288 0.035174619 -0.014922663
0.047228321 0.03456042 -0.014794135
-0.045299418 0.045139719 -0.01498093
0.047373995 0.045215599 -0.014377954
-0.045102052 0.054838993 -0.014850422
0.047495902 0.055048421 -0.014920184
-0.044808559 0.065100893 -0.014931677
0.047578111 0.064650558 -0.015395634
-0.044576839 0.075404122 -0.015009311
0.047607001 0.075586975 -0.014983851
-0.044530131 0.084621496 -0.015029314
0.047078587 0.084999993 -0.014658999
-0.04415359 0.094819814 -0.015258295
0.046506774 0.094437316 -0.014953981
-0.044154972 0.10501571 -0.014986485
0.046812437 0.10554642 -0.015077227
-0.041591641 0.11148103 -0.015449294
-0.03508072 0.11275113 -0.014974196
-0.025265519 0.11328267 -0.014899055
-0.014930366 0.11328013 -0.014530531
-0.0052130595 0.11328018 -0.01495967
0.005160036 0.11325262 -0.015204112
0.015235146 0.11310161 -0.014690504
0.025244117 0.11286467 -0.014722597
0.035178769 0.11254466 -0.015305895
0.043026537 0.11147891 -0.015103072
-0.044916969 -0.074986085 -0.004924553
-0.035013814 -0.07720454 -0.0047866441
-0.025232231 -0.077432491 -0.0050651692
-0.014494223 -0.077649675 -0.0048285229
-0.0047379415 -0.077849239 -0.0051618856
0.0049056658 -0.077999838 -0.0046085101
0.014988513 -0.07815323 -0.005511763
0.025207853 -0.078256018 -0.0053383783
0.03502845 -0.078197122 -0.0050069476
0.044346396 -0.075255536 -0.00494768
-0.04713266 -0.065300755 -0.0048820968
0.046113379 -0.064986937 -0.0048536607
-0.047156256 -0.055329069 -0.0048320279
0.046455037 -0.054796033 -0.0051800311
-0.047045853 -0.044789553 -0.0049980022
0.046652541 -0.045411278 -0.0051639718
-0.046905749 -0.035240199 -0.0051857843
0.046793681 -0.03494164 -0.0048198481
-0.046829812 -0.025447499 -0.0052620913
0.04696871 -0.02491905 -0.0047672759
-0.046735566 -0.015236185 -0.004961072
0.04711175 -0.015333779 -0.0048063174
-0.046613555 -0.005212497 -0.0050352127
0.047212649 -0.0047028889 -0.0046332441
-0.0464941 0.0050844769 -0.0053498293
0.047305059 0.0050041075 -0.0048278826
-0.046354361 0.015156889 -0.004759179
0.0473895 0.015079004 -0.0050239158
-0.046218321 0.024472043 -0.004542416
0.047488984 0.025151089 -0.0050825388
-0.046051443 0.034769773 -0.0050329007
0.047571156 0.035210583 -0.0047284472
-0.04582683 0.045020916 -0.0048186281
0.047650117 0.045075297 -0.004938053
-0.045609925 0.055032898 -0.0045023514
0.047742546 0.055302855 -0.005372542
-0.045374978 0.064935811 -0.0047759362
0.047791217 0.065099522 -0.0045423261
-0.04519514 0.074880868 -0.0049034148
0.04770058 0.075052239 -0.0048721386
-0.046790287 0.084604204 -0.0050191907
0.049069051 0.08514189 -0.0054533449
0.050123315 0.085621543 -0.006952059
-0.046516549 0.094940841 -0.0054803356
0.048605144 0.094887368 -0.0048652533
-0.044754542 0.1052931 -0.0045553795
0.047253136 0.10468213 -0.0049310881
-0.041895594 0.11155364 -0.0045806002
-0.034950532 0.11263593 -0.0049460116
-0.024829337 0.11342274 -0.0042287959
-0.015342426 0.11394776 -0.0045003025
-0.0046591698 0.11293649 -0.005300933
0.0052964599 0.11291836 -0.0051566334
0.014816555 0.11295331 -0.0045409254
0.025067702 0.11302582 -0.0052782637
0.035147768 0.11285029 -0.0052462933
0.043271147 0.1119022 -0.0048249271
-0.025354449 0.12167469 -0.00025803503
-0.044957463 -0.07468044 0.0049830219
-0.034970809 -0.077116325 0.0045243516
-0.025091739 -0.077445343 0.0047015389
-0.015166671 -0.077652611 0.0050309058
-0.0049289395 -0.07784345 0.0047736713
0.0053466973 -0.077961423 0.0049806288
0.014879828 -0.078099497 0.0048079705
0.025131846 -0.078229427 0.0050535728
0.034928929 -0.078209281 0.0050867945
0.04424376 -0.075470798 0.0047933231
-0.047178604 -0.065004356 0.0055358228
0.046074554 -0.064880833 0.0049226889
-0.047035947 -0.055076756 0.004602639
0.046335388 -0.054958683 0.0044742636
-0.0468028 -0.044801008 0.0050356565
0.046640493 -0.044925634 0.00548772
-0.046589557 -0.035270367 0.0054463823
0.046824187 -0.035161912 0.0051991995
-0.046603534 -0.025401354 0.0047763465
0.046941541 -0.024941262 0.0052632377
-0.046676982 -0.015083833 0.0050112051
0.04699542 -0.014944667 0.0050796526
-0.046597503 -0.0048829769 0.0049772314
0.047064878 -0.0051908963 0.0049649626
-0.046507247 0.0047268253 0.0048606307
0.047192469 0.0051073832 0.0046035899
-0.046403982 0.015453411 0.0049641482
0.047277883 0.015108988 0.0046849428
-0.046270844 0.025047652 0.0052394751
0.047333661 0.024913909 0.0047911815
-0.046118282 0.03512134 0.0047509558
0.047368154 0.034710448 0.0048832372
-0.04591655 0.044969447 0.0049743648
0.047449511 0.04536229 0.0048785629
-0.045642685 0.054898497 0.0052504521
0.04752221 0.054908879 0.0050804266
-0.045353267 0.064928517 0.0052775517
0.047595367 0.064977571 0.0050106421
-0.045054931 0.075021826 0.0050699362
0.047526307 0.074765176 0.0050227647
-0.045176908 0.084597625 0.0051147309
0.047452085 0.085084185 0.0049274839
-0.045652051 0.095114864 0.0050550392
0.047784224 0.094461627 0.0053535816
-0.044566277 0.10506672 0.005081024
0.046931531 0.10514063 0.0050395052
-0.042131815 0.11131755 0.0054511996
-0.034461167 0.11502694 0.0048436853
-0.026187155 0.11597426 0.00060894887
-0.012622549 0.11644851 0.0045738062
-0.0051394752 0.11245339 0.0049722847
0.0050089597 0.11249714 0.0048868544
0.014761599 0.11268727 0.0046123862
0.025009729 0.11290965 0.0047792103
0.035262357 0.11304009 0.00566871
0.043430939 0.112079 0.004603426
-0.032987054 0.12285246 0.0063735843
-0.024875076 0.12430517 0.0045308848
-0.015778286 0.12290349 0.0050591412
-0.045027886 -0.074369438 0.015007274
-0.034587111 -0.076994441 0.015266075
-0.024937909 -0.077409446 0.014989718
-0.014792188 -0.077677123 0.015325079
-0.00515546 -0.077827685 0.015004367
0.0049694548 -0.077915534 0.015067108
0.015103017 -0.078058392 0.015187778
0.025493909 -0.078258969 0.014948626
0.035234347 -0.078263871 0.014963493
0.044107541 -0.075542122 0.014878873
-0.046719737 -0.065188259 0.015099346
0.045783434 -0.064835213 0.015150233
-0.046654809 -0.055253197 0.014733521
0.045957454 -0.055033416 0.014888343
-0.046501122 -0.045241024 0.014915908
0.046054095 -0.045061737 0.014885532
-0.046287235 -0.034852952 0.015381497
0.046120349 -0.035297394 0.014926701
-0.046336204 -0.024941808 0.014886844
0.046312287 -0.024851955 0.014743205
-0.046339691 -0.014623247 0.014827964
0.046468843 -0.014620518 0.014843927
-0.046243988 -0.0049861679 0.014791799
0.046541702 -0.0054278634 0.015119128
-0.046125654 0.0049373703 0.014884617
0.046671372 0.0052026534 0.014854111
-0.046010114 0.015177436 0.014784401
0.046735175 0.015324034 0.01512923
-0.045868725 0.025564799 0.014970814
0.046845138 0.025043726 0.015053773
-0.045725897 0.034992833 0.014833347
0.046966724 0.035106964 0.01479504
-0.045490675 0.044988196 0.015055559
0.047029778 0.045323726 0.014916041
-0.045235142 0.055199668 0.014873819
0.047064699 0.054908663 0.015175579
-0.045006193 0.064212613 0.015238517
0.047124114 0.065154016 0.015211388
-0.044815186 0.074651361 0.015043948
0.047148995 0.074677102 0.014706323
-0.044615209 0.084904291 0.015293851
0.046613701 0.0851091 0.014701121
-0.04436937 0.094600551 0.014553722
0.046369623 0.095251299 0.014894257
-0.044397626 0.1045356 0.015014674
0.04646476 0.10541164 0.015342201
-0.042115223 0.11136471 0.014481293
-0.035846438 0.11519262 0.0146464
-0.01255895 0.1154427 0.015646422
-0.0051201358 0.11240118 0.014980708
0.0048242388 0.11285745 0.015080955
0.014838931 0.11322433 0.014992064
0.025287794 0.11330806 0.014952645
0.034583323 0.11319257 0.014847632
0.043324854 0.11205146 0.014729035
-0.033697188 0.12302297 0.014455253
-0.025326652 0.12453405 0.014409481
-0.014594168 0.12343141 0.015062251
-0.04376797 -0.074405462 0.025359489
-0.03523998 -0.076294497 0.026256016
-0.024991263 -0.077441543 0.025391083
-0.015096407 -0.077578574 0.02514524
-0.0054307315 -0.077656142 0.025046511
0.0048937555 -0.07781285 0.024902809
0.01489247 -0.077950649 0.025183715
0.024957968 -0.078174762 0.024685405
0.035182867 -0.078362517 0.025497846
0.043261755 -0.074954726 0.025229245
-0.044825196 -0.064867191 0.025779167
-0.039849095 -0.069664061 0.029966578
0.044593055 -0.064430803 0.0251016
-0.044671662 -0.054993372 0.026093975
-0.038967695 -0.0551388 0.029939374
0.044668872 -0.054938819 0.025236877
-0.044876713 -0.044995844 0.025499733
-0.037545752 -0.044696093 0.029872069
0.044723585 -0.045048032 0.024976974
-0.04440026 -0.034658059 0.026071114
-0.037387211 -0.034804709 0.029771917
0.044644784 -0.035077117 0.025380487
-0.044400696 -0.02510195 0.026206901
-0.037241105 -0.024790093 0.029773453
0.044935178 -0.025148967 0.024753561
-0.044379778 -0.015035388 0.025778586
-0.036520898 -0.015040671 0.029794168
0.044987049 -0.015040439 0.025171934
-0.044254135 -0.0049477485 0.025841488
-0.036561377 -0.0050529363 0.029747333
0.045032106 -0.0049033207 0.025213992
-0.044115543 0.0048596645 0.02569657
-0.036163248 0.0057463096 0.029712982
0.045037575 0.0051900665 0.025328575
-0.044164523 0.01520314 0.025398003
-0.0352749 0.015198134 0.029646743
-0.029706497 0.018029897 0.029981583
0.045148145 0.015003574 0.025159664
-0.043986958 0.025033619 0.025712878
-0.035424538 0.024815047 0.029533681
-0.029138247 0.026613081 0.029930003
0.045026675 0.025097864 0.025552815
-0.044011049 0.034927838 0.025304943
-0.035208434 0.035049543 0.029442841
-0.028319016 0.034846097 0.029896576
0.044927187 0.035232585 0.025892003
-0.043862943 0.045139048 0.025588257
-0.035045594 0.044946674 0.029432654
-0.028296411 0.045541562 0.029897001
0.039988197 0.048075337 0.029997118
0.044469438 0.04580519 0.026383441
-0.043703828 0.055045448 0.025692955
-0.034867447 0.054842226 0.029367533
-0.028036844 0.055616479 0.029879604
0.039537612 0.056514367 0.029956028
0.044731781 0.05503349 0.026119711
-0.043727383 0.065029562 0.025548
-0.035086408 0.064987987 0.029222265
-0.026157346 0.065612167 0.029783318
0.039138298 0.06454768 0.029919857
0.04465571 0.065102793 0.025969718
-0.043660894 0.07505852 0.02524358
-0.035349824 0.075269677 0.029018734
-0.024738017 0.075260974 0.029654961
-0.018575374 0.077273458 0.029926004
0.038566381 0.075634211 0.029885419
0.04489857 0.074963234 0.026172539
-0.043311633 0.084636845 0.025570255
-0.03487993 0.084880047 0.028991116
-0.024845906 0.084912449 0.029527687
-0.015522494 0.085528247 0.029876508
0.03815503 0.085804999 0.029804558
0.044740647 0.084695138 0.026367035
-0.043127429 0.094782196 0.025177674
-0.035118274 0.094876319 0.028930305
-0.025115078 0.095522143 0.029443776
-0.014979031 0.095125049 0.029829362
-0.0096320082 0.097155914 0.029989744
0.015216201 0.099811077 0.029994465
0.027194617 0.099756859 0.029975977
0.037508979 0.094798058 0.029764954
0.044766996 0.095462382 0.025953619
-0.042739626 0.10485082 0.025264908
-0.035078585 0.10540793 0.02890227
-0.024941377 0.10549738 0.029305412
-0.014836483 0.10504624 0.029542731
-0.0052177771 0.10514054 0.029560227
0.0050305007 0.10497759 0.029537059
0.015166801 0.10498825 0.029517295
0.024923125 0.10497186 0.029556315
0.035147768 0.10496427 0.029606862
0.044462904 0.10472552 0.025871592
-0.041859318 0.11148617 0.023086654
-0.034556583 0.11291782 0.024007386
-0.025070775 0.11433245 0.024720579
-0.015619547 0.1133293 0.024100402
-0.0052446881 0.11191814 0.024389172
0.005416255 0.11235007 0.024190122
0.015127673 0.11249067 0.024160946
0.02460473 0.11240212 0.024612177
0.03484248 0.11241635 0.02478588
0.042468719 0.11174095 0.024442943
-0.031405143 0.1218475 0.020970546
-0.024811016 0.12295533 0.022626886
-0.017757241 0.12248653 0.022023985
-0.033173814 -0.071496047 0.030257924
-0.025030501 -0.073265761 0.030574178
-0.014843207 -0.073385529 0.030718192
-0.0050701019 -0.073621988 0.030713664
0.0052769929 -0.07360886 0.030794894
0.015458906 -0.073470823 0.030945655
0.025158601 -0.073601365 0.031106465
0.035168007 -0.074140042 0.030769054
0.040845998 -0.073009297 0.030331781
-0.04058921 -0.067984782 0.030011326
-0.034647569 -0.064915381 0.030317163
-0.024739575 -0.064987972 0.030828569
-0.014938598 -0.065120496 0.031064605
-0.0049620708 -0.06490694 0.03117566
0.0051349159 -0.065112375 0.031309452
0.015236644 -0.065319255 0.031428747
0.025218556 -0.065281466 0.031403825
0.035170585 -0.064719118 0.031117585
0.041233405 -0.064084344 0.030349853
-0.033926491 -0.055738002 0.030256592
-0.024939578 -0.055460513 0.030794468
-0.015110101 -0.05503881 0.031139767
-0.0051016756 -0.05506422 0.031309426
0.0053194007 -0.054792468 0.031493876
0.015261359 -0.054862726 0.031584434
0.025378171 -0.054955367 0.031421173
0.034955364 -0.054790579 0.031074066
0.041197222 -0.055167574 0.030278191
-0.032701075 -0.044811226 0.030175796
-0.024598101 -0.044898897 0.030749045
-0.014831183 -0.044805653 0.031200174
-0.0051735672 -0.04505372 0.031475741
0.004712339 -0.044865452 0.031667028
0.015140128 -0.044933204 0.031723883
0.025303081 -0.045090951 0.031538311
0.034800857 -0.04505292 0.031082332
0.041216508 -0.044949882 0.030177394
-0.032079857 -0.035047341 0.030177018
-0.024986424 -0.035156026 0.030713728
-0.015183843 -0.034900855 0.031154413
-0.0055061202 -0.035089061 0.031483334
0.0048613483 -0.035082296 0.031808205
0.014848057 -0.034864832 0.031853192
0.024878284 -0.035107199 0.03165723
0.034668226 -0.034960654 0.031108221
0.04094192 -0.035141144 0.030223094
-0.032195885 -0.025201913 0.03018485
-0.024730997 -0.025043143 0.030770702
-0.014690307 -0.025262009 0.03125605
-0.0050746771 -0.024814038 0.031571493
0.0053909449 -0.02527201 0.031833172
0.015070671 -0.025218196 0.031894553
0.024748405 -0.02490632 0.031755783
0.035346758 -0.025215512 0.031002138
0.041693427 -0.025147866 0.030182134
-0.031810675 -0.014863579 0.030190963
-0.024862833 -0.015174157 0.03077421
-0.014858208 -0.015163215 0.031340647
-0.005060853 -0.014798056 0.031548079
0.0047108037 -0.014916546 0.031736784
0.01455312 -0.014792494 0.031858608
0.024791712 -0.015220281 0.03173802
0.035412464 -0.014630132 0.030948738
0.041682098 -0.014170142 0.03019724
-0.031847585 -0.0053073806 0.030146301
-0.024783457 -0.0054980316 0.030701423
-0.015310047 -0.0051201945 0.031267278
-0.0052149352 -0.0049870154 0.031501222
0.0047409018 -0.0046903361 0.031670082
0.014864809 -0.0047426899 0.031797756
0.025101859 -0.005025039 0.031623691
0.034909327 -0.0049121268 0.030959478
0.041441198 -0.005487687 0.030195519
-0.031248227 0.0037978112 0.030107846
-0.02519815 0.0049496368 0.03047655
-0.015374962 0.0049172547 0.031105367
-0.0051071723 0.0049038073 0.031512588
0.0046649002 0.0047054021 0.03166819
0.015269169 0.0048500663 0.03174869
0.025140449 0.0049455757 0.031498715
0.034704 0.0047359779 0.030915542
0.041253947 0.0052274424 0.03017506
-0.024814233 0.014256346 0.030333048
-0.015101705 0.015156756 0.030947633
-0.0053478307 0.014702593 0.031479064
0.0049408972 0.015412485 0.031662557
0.015221841 0.01492906 0.031717394
0.024747889 0.014684001 0.031416591
0.034882702 0.015472231 0.030819947
0.040982101 0.014479458 0.03015379
-0.024178553 0.025231529 0.030271159
-0.014953903 0.025107982 0.030870305
-0.0053780125 0.025185684 0.031436674
0.0049554156 0.024511296 0.03166087
0.015114375 0.024883378 0.031677749
0.025122501 0.024880221 0.031341843
0.034912068 0.024821484 0.03074594
0.04069398 0.025133286 0.030124692
-0.023676855 0.034540009 0.030206358
-0.015075034 0.03515403 0.030766835
-0.0050134594 0.03462474 0.031406231
0.0050635082 0.035191111 0.031612892
0.015086972 0.034952998 0.031540286
0.025042059 0.035242219 0.031264082
0.034817871 0.035393853 0.03060695
0.040583566 0.033998162 0.030070782
-0.02365938 0.045068685 0.030194545
-0.015300293 0.044979319 0.030725295
-0.0051933127 0.044923689 0.03129771
0.0050379825 0.045405176 0.031430915
0.014701022 0.045493491 0.031323332
0.024718288 0.044564899 0.031176852
0.035482459 0.044868771 0.030413941
0.04034064 0.04209483 0.030023422
-0.02337735 0.054738183 0.030165864
-0.015275886 0.055194184 0.03057906
-0.0050298944 0.05474868 0.031083198
0.0051035732 0.054772366 0.031275999
0.014708994 0.054862302 0.03117241
0.024991313 0.054808099 0.031022696
0.034692973 0.054463644 0.030387392
-0.021604249 0.063569054 0.030075729
-0.015204809 0.065006807 0.030372921
-0.0048296852 0.064860404 0.03084708
0.004772339 0.06490133 0.031058501
0.015492639 0.065091223 0.031013498
0.025096465 0.065030009 0.030861204
0.034107801 0.064754777 0.030358639
-0.020123176 0.070422657 0.030007467
-0.013499797 0.074327871 0.030246269
-0.0052206595 0.074766234 0.03058769
0.0055362009 0.075450987 0.030823212
0.015142481 0.07520023 0.030850928
0.025406651 0.075370379 0.030683951
0.033488467 0.07499066 0.030343607
-0.011657714 0.08328294 0.030080095
-0.0047636586 0.084919453 0.030349983
0.0050668111 0.085176624 0.030618818
0.0148911 0.085292466 0.030620094
0.024845341 0.085119724 0.030522117
0.033415623 0.08499191 0.030269712
-0.010086587 0.091503642 0.030006083
-0.0048685949 0.095353581 0.030148108
0.0047375388 0.094521366 0.030354068
0.014874678 0.095027961 0.030310981
0.024891784 0.094956242 0.030263312
0.033084985 0.094979972 0.03016969
-0.0052107461 0.10022262 0.030026102
0.0027274198 0.10003245 0.030009104
0.035303392 0.10021749 0.030006845
