# .PCD v0.7 - Point Cloud Data file format
VERSION 0.7
FIELDS x y z
SIZE 4 4 4
TYPE F F F
COUNT 1 1 1
WIDTH 1074
HEIGHT 1
VIEWPOINT 0 0 0 1 0 0 0
POINTS 1074
DATA ascii
0.013653477 -0.050528288 -0.03000416
0.0064325007 -0.04360579 -0.030013274
0.014941957 -0.044745035 -0.030026296
0.020632949 -0.044012442 -0.030004898
-0.0063724387 -0.031706437 -0.030016989
0.006088288 -0.035021227 -0.030024197
0.014830724 -0.03503605 -0.030046904
0.020670101 -0.034957822 -0.030008798
-0.0033290684 -0.025308473 -0.03001369
0.0047290316 -0.025445677 -0.030022958
0.015073437 -0.025194719 -0.030042183
0.020598512 -0.026749074 -0.030005498
0.0090002194 -0.017658265 -0.030009549
0.013449487 -0.017648445 -0.030012749
-0.065019049 -0.10013613 -0.023748806
-0.053431537 -0.10006267 -0.022991236
-0.045095265 -0.10011012 -0.022952326
-0.034070436 -0.10014725 -0.023144942
-0.025507763 -0.10013928 -0.022369836
-0.01474476 -0.10019626 -0.02241029
-0.0054645562 -0.10027353 -0.022983639
0.0056701577 -0.1003724 -0.023060737
0.014974973 -0.10047921 -0.023211366
0.025468195 -0.1005282 -0.023536943
0.035094187 -0.10062476 -0.023599483
0.044412389 -0.10067259 -0.023583097
0.05575151 -0.10065567 -0.023841763
0.064924285 -0.10078239 -0.023803897
0.070336789 -0.10027844 -0.024366995
-0.071573198 -0.095483169 -0.024054693
-0.065147452 -0.096089326 -0.02640388
-0.055458102 -0.096357539 -0.026878731
-0.04518595 -0.094984725 -0.02800734
-0.03486798 -0.095620297 -0.027828865
-0.024780197 -0.095722042 -0.027731244
-0.014703867 -0.095574319 -0.027922228
-0.0050840173 -0.095180452 -0.028209997
0.0047263158 -0.095312111 -0.028237442
0.015474093 -0.095567204 -0.028252557
0.025226971 -0.095288627 -0.028388318
0.03511158 -0.095328487 -0.02848877
0.045594353 -0.095886506 -0.028434016
0.055058569 -0.094881974 -0.028515974
0.064650521 -0.095047116 -0.028289255
0.071151279 -0.095068492 -0.023837438
-0.071956374 -0.085233845 -0.02365106
-0.064558238 -0.085215837 -0.027380444
-0.055095352 -0.084834248 -0.028210657
-0.04471866 -0.084946245 -0.028743014
-0.034810357 -0.085196301 -0.028990524
-0.024698082 -0.085096933 -0.029134298
-0.015148993 -0.085248686 -0.029211728
-0.0056539257 -0.084909685 -0.029317621
0.0050063003 -0.084885359 -0.029393915
0.015356438 -0.085184708 -0.029446041
0.024597086 -0.084593557 -0.029485667
0.034963015 -0.084843159 -0.029453848
0.045122772 -0.085638575 -0.029249283
0.055065017 -0.084568553 -0.028949309
0.065131657 -0.085116506 -0.028325778
0.071395017 -0.084709495 -0.023904944
-0.071766347 -0.074897036 -0.024208497
-0.064573467 -0.074888714 -0.027177244
-0.054894626 -0.075056672 -0.028124053
-0.04535209 -0.074946173 -0.028785551
-0.035136614 -0.075247943 -0.029212017
-0.024956172 -0.074714877 -0.029480435
-0.015203326 -0.074729696 -0.029637421
-0.0053404639 -0.074890643 -0.029698487
0.0050635384 -0.074901342 -0.029707413
0.014954019 -0.074916832 -0.029705718
0.025134012 -0.074708395 -0.029664485
0.035251018 -0.074925557 -0.029521743
0.044941228 -0.075038858 -0.029226931
0.054461259 -0.074790716 -0.028766626
0.065201759 -0.074446611 -0.027907664
0.071587183 -0.075130738 -0.023951445
-0.071804367 -0.065767236 -0.023803169
-0.065333635 -0.065051787 -0.027060136
-0.054929558 -0.065051988 -0.028027125
-0.044879571 -0.064368553 -0.02874382
-0.034610249 -0.065298297 -0.029243154
-0.025121514 -0.065096736 -0.029512914
-0.014599675 -0.064910792 -0.029737419
-0.0046952139 -0.064698391 -0.029825639
0.004784131 -0.064715959 -0.029843621
0.015077008 -0.064883307 -0.029795257
0.025198361 -0.065035574 -0.02971294
0.034977984 -0.065212436 -0.02952506
0.045052025 -0.064691387 -0.029096955
0.054588422 -0.065256946 -0.028581889
0.064492509 -0.065080568 -0.02779351
0.071767315 -0.065380059 -0.023662696
-0.071602024 -0.055119541 -0.023509843
-0.064573377 -0.055288631 -0.027152395
-0.054823272 -0.054482903 -0.028011514
-0.045378912 -0.054955885 -0.028693501
-0.034916967 -0.054900285 -0.029138625
-0.025193924 -0.055201299 -0.029499523
-0.014806339 -0.05461961 -0.029760413
-0.0050978828 -0.054998461 -0.029855005
0.0050712074 -0.055024344 -0.029923044
0.015359174 -0.055234376 -0.029926868
0.024693023 -0.05536535 -0.029841831
0.03500988 -0.054712284 -0.029623233
0.044998407 -0.054757293 -0.029191028
0.055138558 -0.055303499 -0.028572239
0.065044336 -0.054728024 -0.027751166
0.071757615 -0.055056654 -0.024348537
-0.071410626 -0.045150239 -0.023954639
-0.06500864 -0.045175266 -0.027024738
-0.054573581 -0.044929359 -0.028023774
-0.045055561 -0.045142047 -0.028706016
-0.035205588 -0.044770952 -0.029172501
-0.025268558 -0.044864558 -0.029580133
-0.014586884 -0.04483027 -0.029761752
-0.0051408405 -0.044472143 -0.029944763
0.0031267484 -0.046822708 -0.029987566
0.018990846 -0.048499297 -0.029991029
0.025039822 -0.045456666 -0.029899236
0.034622096 -0.04457273 -0.029640172
0.044889592 -0.044670168 -0.029211532
0.054918271 -0.045230493 -0.028566083
0.065004893 -0.044462848 -0.027766576
0.072063781 -0.044576216 -0.024012106
-0.071330138 -0.034875713 -0.023725579
-0.064962693 -0.034970555 -0.027026337
-0.054544069 -0.035203218 -0.028026501
-0.045172866 -0.035255443 -0.028640009
-0.035208873 -0.035391323 -0.02916535
-0.024469092 -0.035190612 -0.029541096
-0.014978609 -0.035374526 -0.029810091
-0.0054088212 -0.035954181 -0.029953118
0.0014715289 -0.036855794 -0.029994251
0.025616184 -0.035564315 -0.029923445
0.034745764 -0.034326307 -0.029664231
0.044955913 -0.034674328 -0.029227769
0.055624362 -0.035316981 -0.028524466
0.064941309 -0.035106845 -0.027750479
0.071981363 -0.035178732 -0.024661187
-0.071184404 -0.025045954 -0.023385935
-0.064945117 -0.025580009 -0.027152684
-0.054821596 -0.025670545 -0.028063206
-0.044658113 -0.02474056 -0.028699972
-0.035187423 -0.024604222 -0.029170275
-0.025121145 -0.025242226 -0.029509811
-0.015150704 -0.025137048 -0.029774666
-0.0070962701 -0.02467062 -0.029931821
0.001245835 -0.020940607 -0.029989913
0.025577113 -0.024989961 -0.029896008
0.034984823 -0.0250441 -0.029650711
0.044973899 -0.024569731 -0.029222544
0.054942094 -0.024546808 -0.028615236
0.064586587 -0.025083285 -0.027850671
0.072146863 -0.025381967 -0.024009001
-0.070980385 -0.015095393 -0.023777727
-0.065255813 -0.015431936 -0.027188987
-0.054532189 -0.014886929 -0.028027806
-0.044729706 -0.015093888 -0.028643716
-0.034958228 -0.015031344 -0.029109437
-0.025072806 -0.015207236 -0.029455556
-0.014980972 -0.015045916 -0.029724989
-0.0048584444 -0.014792561 -0.029887207
0.004421446 -0.014961983 -0.029966973
0.016097708 -0.013606571 -0.029959096
0.02503277 -0.014784942 -0.029843846
0.03498742 -0.014914898 -0.02959439
0.04477375 -0.015202885 -0.029195687
0.054596715 -0.01486131 -0.028629493
0.065260932 -0.015655892 -0.027888177
0.072262019 -0.015040112 -0.023731148
-0.07094492 -0.0052835629 -0.023513066
-0.064948224 -0.0045132549 -0.027004117
-0.054627202 -0.0050041042 -0.027835848
-0.045016844 -0.0050850008 -0.028472647
-0.034569513 -0.0048247664 -0.02898908
-0.025095372 -0.0052320822 -0.02936182
-0.014944091 -0.0047674361 -0.029644286
-0.004376499 -0.0047462522 -0.029833503
0.004667752 -0.0050313408 -0.029920455
0.015249364 -0.0048126662 -0.029897882
0.024413045 -0.0045968462 -0.029784527
0.03545012 -0.0047166874 -0.029514968
0.045008317 -0.004788666 -0.029160595
0.055217363 -0.0050606444 -0.028593972
0.064868905 -0.0055224942 -0.027910907
0.072391406 -0.0047194366 -0.023718836
-0.071026422 0.0047409902 -0.023533192
-0.064961649 0.0050442098 -0.026799055
-0.055041518 0.0050994377 -0.02758353
-0.044861306 0.0053888406 -0.02831983
-0.035290733 0.0047144084 -0.028871417
-0.025056338 0.0045859688 -0.029288646
-0.0151303 0.0047882972 -0.029564608
-0.005285874 0.0049652825 -0.029727444
0.0049535586 0.0044593532 -0.029838566
0.014766149 0.0056284703 -0.029847568
0.024786029 0.0050220359 -0.029758468
0.034786507 0.0051846015 -0.029526165
0.045215506 0.0051459456 -0.029139305
0.054622162 0.0056638988 -0.028637888
0.064812869 0.004469675 -0.027896579
0.07229241 0.0051009906 -0.024402574
-0.071017504 0.01496535 -0.023658706
-0.065335415 0.014622585 -0.026588179
-0.055165231 0.014835998 -0.027468758
-0.045776676 0.015119111 -0.028140979
-0.034755506 0.015135126 -0.02874773
-0.024884701 0.01537088 -0.029163318
-0.015328982 0.014689267 -0.029468609
-0.0044261483 0.014903634 -0.029666109
0.0050227996 0.015180424 -0.029756619
0.015572138 0.014787074 -0.02976992
0.025251031 0.014786945 -0.029690916
0.03498574 0.015031951 -0.02948653
0.044939417 0.015197026 -0.029146206
0.055243559 0.014995517 -0.028579688
0.065038458 0.014773572 -0.027872734
0.072466902 0.015261918 -0.024536783
-0.071013816 0.024536619 -0.023803914
-0.064913079 0.025294961 -0.026535988
-0.055018507 0.02521072 -0.027349994
-0.045092121 0.024928123 -0.028061736
-0.035356052 0.025084803 -0.028597264
-0.024977712 0.024638139 -0.029040415
-0.01532216 0.024800634 -0.029307287
-0.0046575456 0.025347326 -0.029558528
0.0049551912 0.024875132 -0.029681228
0.014865314 0.025045775 -0.029706689
0.025067052 0.024616225 -0.029649489
0.034544252 0.024639616 -0.029451761
0.044897843 0.025288338 -0.029115744
0.055332262 0.02489117 -0.028562279
0.064618997 0.025311075 -0.027906939
0.072510354 0.024928005 -0.024672775
-0.071124673 0.034732029 -0.022732208
-0.064623401 0.035001419 -0.026485903
-0.055120222 0.035476211 -0.02719689
-0.045211658 0.034774877 -0.027920427
-0.034913637 0.035286445 -0.028490979
-0.025094405 0.034636907 -0.028920783
-0.014996626 0.035195835 -0.029205604
-0.0052056913 0.034909435 -0.029442968
0.0050158137 0.034455489 -0.029602101
0.015129646 0.03474449 -0.029634601
0.02499201 0.034885075 -0.029563924
0.034896284 0.03487936 -0.02939257
0.045201741 0.035094984 -0.029066877
0.054966088 0.034883797 -0.028590383
0.064693764 0.035354223 -0.027922114
0.072651118 0.03485151 -0.024658734
-0.071089409 0.044822805 -0.023128744
-0.064873025 0.04509763 -0.026313091
-0.05489083 0.044866633 -0.02709494
-0.044317912 0.044432528 -0.02784293
-0.035042141 0.045132395 -0.02834335
-0.024854936 0.044952568 -0.028796075
-0.014924466 0.044786453 -0.029107252
-0.0046349508 0.044959839 -0.029333083
0.0047676507 0.044961125 -0.029464535
0.014982598 0.044736758 -0.029527441
0.025129577 0.044993732 -0.029472742
0.034696609 0.045136016 -0.029309649
0.044859145 0.044844829 -0.029014302
0.054938316 0.044509795 -0.028557008
0.065404341 0.045423605 -0.027829973
0.072872207 0.045252275 -0.024335312
-0.071067601 0.054966088 -0.022961924
-0.065454386 0.055857047 -0.026199967
-0.054698076 0.055013046 -0.027021978
-0.045163885 0.055252038 -0.027677039
-0.035260312 0.054024465 -0.028226115
-0.024978252 0.055136133 -0.028651189
-0.014674365 0.054927148 -0.028983669
-0.0047015105 0.054980639 -0.029195659
0.0052668112 0.055003431 -0.029333802
0.01475352 0.055181231 -0.029395152
0.024658959 0.055288013 -0.029352566
0.034845743 0.05520533 -0.029209446
0.044987425 0.055269331 -0.028929533
0.054931093 0.055110585 -0.028477211
0.064959615 0.054890633 -0.027843429
0.072773397 0.055455469 -0.024615305
-0.070951283 0.064722948 -0.023335129
-0.064959131 0.064838797 -0.026206397
-0.055198699 0.06500487 -0.026894333
-0.044901282 0.065219611 -0.027600659
-0.034986805 0.064801924 -0.028117575
-0.024831921 0.065556161 -0.028520707
-0.015338802 0.064930707 -0.028797774
-0.0045068585 0.065005325 -0.029031098
0.0054697632 0.06548436 -0.029158698
0.014791543 0.065176301 -0.029233752
0.02528226 0.065173931 -0.029226083
0.034814879 0.064946704 -0.029105434
0.044994406 0.065061778 -0.028844884
0.054754205 0.065290555 -0.028409708
0.064746328 0.064760201 -0.02783582
0.072906554 0.065178081 -0.024448639
-0.07088764 0.073916733 -0.022760762
-0.065437287 0.074777171 -0.026096553
-0.054649409 0.075036809 -0.026901772
-0.045284957 0.074694216 -0.027526397
-0.034837108 0.075289033 -0.028050672
-0.025216999 0.074659161 -0.028388511
-0.01470139 0.075382024 -0.028650872
-0.0049033868 0.074755371 -0.028858684
0.0052152374 0.075078338 -0.028986722
0.015080023 0.075449683 -0.029051505
0.02479735 0.074805766 -0.02908154
0.035298619 0.075098604 -0.028981583
0.044895314 0.07462772 -0.028752899
0.055272307 0.07475774 -0.02833475
0.065041676 0.074982733 -0.027779512
0.072813824 0.075889416 -0.024932276
-0.070718892 0.085279539 -0.022852803
-0.064677782 0.085369855 -0.026151465
-0.055049181 0.085117102 -0.026822081
-0.044746052 0.085079908 -0.027453704
-0.035207018 0.085001945 -0.027925285
-0.024548996 0.085506357 -0.028265001
-0.014877209 0.085129127 -0.028482633
-0.0052888291 0.084647074 -0.028655801
0.0050049932 0.085082576 -0.02876999
0.015244945 0.084621258 -0.028848084
0.025220193 0.084988534 -0.028851273
0.035105396 0.084805585 -0.028807312
0.044811472 0.08506529 -0.028661853
0.054739702 0.084730104 -0.028356707
0.06475877 0.084845662 -0.027811326
0.072868258 0.084859528 -0.02504698
-0.070525132 0.094348542 -0.022691073
-0.065053426 0.095307209 -0.026084555
-0.055305045 0.095142461 -0.026669528
-0.044985041 0.09538272 -0.02727185
-0.035098057 0.094875999 -0.027733365
-0.024452688 0.0951645 -0.028021209
-0.014971343 0.094984941 -0.028202668
-0.0052374355 0.094585314 -0.028357515
0.0046627861 0.095014453 -0.02844616
0.015127243 0.095316961 -0.028519811
0.025147172 0.094763964 -0.028582515
0.034835331 0.094913982 -0.02858182
0.045074649 0.095323361 -0.028495144
0.054623093 0.094983995 -0.028220193
0.065023772 0.095319927 -0.027792726
0.072974779 0.094896115 -0.024716033
-0.07022921 0.10407779 -0.022915075
-0.065669559 0.10480437 -0.025776267
-0.055100448 0.10468305 -0.026543675
-0.044789184 0.10511234 -0.027073409
-0.035065752 0.10511521 -0.027402375
-0.025479944 0.10471867 -0.027627915
-0.015525594 0.10495195 -0.02777137
-0.004859549 0.10546639 -0.027866775
0.0048536095 0.10475532 -0.028020471
0.015635435 0.1051726 -0.028103555
0.025113659 0.10525345 -0.02816396
0.035232972 0.10501394 -0.028245296
0.044515923 0.10402375 -0.028267151
0.055466492 0.10588094 -0.028003791
0.064927272 0.10458538 -0.027763315
0.073144846 0.1052297 -0.024602443
-0.066178605 0.11470361 -0.024941264
-0.055019017 0.11539964 -0.026215551
-0.045119643 0.11521135 -0.026515463
-0.035248909 0.11569958 -0.026453562
-0.025281593 0.11518978 -0.026670529
-0.014793697 0.11594616 -0.026341273
-0.0043889652 0.11654788 -0.025880789
0.0048549208 0.11698189 -0.025498489
0.015088225 0.11600451 -0.025916422
0.025266193 0.11694336 -0.025604272
0.034946114 0.11679933 -0.025668737
0.045152254 0.11673634 -0.025619442
0.054845747 0.1165245 -0.025616266
0.065276086 0.11665093 -0.025858797
0.072815455 0.11475469 -0.02470598
-0.063869871 0.12054034 -0.022642698
-0.05467324 0.1203213 -0.022227732
-0.044681314 0.12034053 -0.022649229
-0.034733735 0.12011708 -0.021918107
-0.024629651 0.12013736 -0.022352505
-0.015613652 0.12015769 -0.021457264
-0.0065161376 0.12007033 -0.020677941
0.0001667412 0.12002818 -0.020031441
-0.06413541 -0.10005274 -0.01498556
-0.055666666 -0.10002984 -0.013093749
-0.044966463 -0.1001595 -0.015001116
-0.035472274 -0.10027899 -0.014996082
-0.025224851 -0.10034709 -0.015673473
-0.015178574 -0.10051245 -0.015272286
-0.0052312501 -0.10069627 -0.014810133
0.0052622193 -0.10080745 -0.015128835
0.015464895 -0.10088742 -0.01508817
0.024725076 -0.10093312 -0.015281935
0.035228964 -0.10097704 -0.01533753
0.044851772 -0.10099436 -0.014892749
0.0549611 -0.10102906 -0.014679572
0.06526982 -0.10092954 -0.015432014
0.070200726 -0.10020331 -0.015250647
-0.071673118 -0.095409438 -0.015208728
-0.066474758 -0.09975592 -0.015762208
-0.054526854 -0.099986024 -0.01800983
0.071356736 -0.095185898 -0.015047331
-0.072236367 -0.084968567 -0.014174666
0.071851082 -0.084622189 -0.014626293
-0.072286986 -0.074992292 -0.015098839
0.072061598 -0.075033359 -0.015413621
-0.072031781 -0.064611442 -0.015156143
0.072313882 -0.064127214 -0.014538663
-0.071831308 -0.054969784 -0.015423572
0.07250502 -0.054572996 -0.014446998
-0.071643136 -0.045016438 -0.014981517
0.072707258 -0.044172782 -0.01502465
-0.07145419 -0.034916695 -0.014639483
0.072869979 -0.034562193 -0.0150942
-0.071258761 -0.025202684 -0.015134169
0.072937019 -0.025392812 -0.01555726
-0.071013518 -0.014880156 -0.015097715
0.073078714 -0.01498727 -0.014972218
-0.071015 -0.0049494277 -0.014954839
0.07317587 -0.0051771831 -0.015219435
-0.071124069 0.0047953599 -0.015119849
0.073346145 0.0050728223 -0.015078032
-0.071302891 0.015182265 -0.015029481
0.073505163 0.014567872 -0.014703527
-0.071302123 0.024977349 -0.014996736
0.073584214 0.02451227 -0.015274805
-0.071302176 0.034956969 -0.015026498
0.073734321 0.035130918 -0.015128492
-0.071268722 0.045216177 -0.014681049
0.073871046 0.044962682 -0.014900629
-0.071268529 0.055290751 -0.015742199
0.073963955 0.054833766 -0.014937273
-0.071078129 0.065087266 -0.015022774
0.074050568 0.064917944 -0.014730653
-0.070949696 0.075066596 -0.014911981
0.074086256 0.07505998 -0.01518199
-0.070784375 0.085358262 -0.014807871
0.074128151 0.085026152 -0.015189569
-0.070523456 0.0950431 -0.015227667
0.074183844 0.094698481 -0.015040862
-0.070201226 0.10264217 -0.015808385
-0.069781713 0.10754465 -0.014491495
0.074197002 0.1053636 -0.014818875
-0.06862694 0.11541786 -0.014999088
0.016003028 0.11990014 -0.018529722
0.025932655 0.11986351 -0.016501762
0.034632344 0.11976865 -0.015202594
0.04530013 0.11964301 -0.014854266
0.054915749 0.11946224 -0.015117239
0.065164469 0.11935543 -0.014186725
0.073442996 0.11489007 -0.014349539
-0.063966721 0.12068085 -0.015477912
-0.055031892 0.12054498 -0.015322703
-0.044721968 0.12050006 -0.015142315
-0.035118043 0.12039535 -0.015398055
-0.025053985 0.12041378 -0.015245287
-0.014947963 0.12059874 -0.014959499
-0.0048454171 0.12075804 -0.014751172
0.0048501147 0.12059333 -0.01509208
0.01501771 0.12070199 -0.013657255
0.023125472 0.12023022 -0.012591955
0.031323276 0.12004454 -0.010259503
-0.063359722 -0.10047321 -0.0044832793
-0.055247471 -0.10052381 -0.0053598653
-0.045145907 -0.10076584 -0.0053491583
-0.035073459 -0.10089385 -0.0049476358
-0.024901701 -0.10100737 -0.0046657091
-0.014942711 -0.10089144 -0.0049817436
-0.0047953161 -0.10101417 -0.0049026539
0.0047759488 -0.10117302 -0.0049089086
0.015011607 -0.10125224 -0.0043751504
0.025254779 -0.10142069 -0.0050353501
0.03495042 -0.1015436 -0.0048495689
0.045348208 -0.10153165 -0.0050248131
0.055192646 -0.10156196 -0.0054173474
0.065157793 -0.101339 -0.0047681034
0.070435911 -0.10024263 -0.0047447216
-0.071539201 -0.094444782 -0.0053614057
-0.06836307 -0.099539034 -0.0055045532
0.071533151 -0.095268071 -0.0052094813
-0.071954675 -0.084657907 -0.0049370308
0.072201565 -0.084427401 -0.0060036592
-0.071959257 -0.074636459 -0.0051448089
0.072553948 -0.074527383 -0.0045215772
-0.071847439 -0.065063454 -0.0052379044
0.072736248 -0.064749077 -0.0043138689
-0.071623169 -0.054630827 -0.0046626986
0.072841734 -0.055167783 -0.0054158531
-0.071567178 -0.04463426 -0.004789554
0.073142402 -0.044961743 -0.0042886483
-0.07136099 -0.035040464 -0.0047929958
0.073328145 -0.034257319 -0.0047788867
-0.071134932 -0.025237786 -0.0050934614
0.073484331 -0.025318457 -0.0048564756
-0.070964642 -0.015372256 -0.0052597788
0.073613733 -0.014567828 -0.0047385311
-0.070981711 -0.0049379589 -0.0051627788
0.073736593 -0.0048547918 -0.0047738198
-0.071061224 0.0048710429 -0.0050119809
0.073865481 0.004831241 -0.0048568486
-0.071205094 0.015291201 -0.0048712031
0.074022308 0.015521639 -0.0048216162
-0.071218766 0.024855839 -0.0045097154
0.074113801 0.025282755 -0.0050477977
-0.071234085 0.034648418 -0.0053627258
0.074202642 0.035034489 -0.0054161637
-0.071183138 0.044949245 -0.0056248121
0.074315637 0.044946045 -0.0050739879
-0.071068786 0.055457357 -0.0049249558
0.074414492 0.055303525 -0.0049339263
-0.070972316 0.065646656 -0.0048927763
0.074460521 0.065109275 -0.0053508459
-0.070834137 0.075179167 -0.0047711441
0.07451304 0.075459398 -0.0054338835
-0.070663892 0.084777378 -0.0049878131
0.074525364 0.084353633 -0.0050515146
-0.070349179 0.09509103 -0.0053447699
0.074576393 0.095344909 -0.0053627137
-0.07008379 0.1010086 -0.0063316124
-0.069619507 0.10600979 -0.0041015907
0.074581273 0.10494229 -0.0049445364
-0.068334259 0.11566086 -0.0047297264
0.036471732 0.11999659 -0.0098181479
0.047103912 0.119918 -0.0095811877
0.055067811 0.11987893 -0.0094647491
0.066834763 0.11972243 -0.0068980455
0.073571943 0.11499545 -0.0052151433
-0.063283414 0.12110162 -0.004839614
-0.054989092 0.12113021 -0.0049902005
-0.045299567 0.12115239 -0.0053531304
-0.03478355 0.12116116 -0.005308772
-0.024959743 0.12115362 -0.00526196
-0.014739536 0.1213135 -0.0048480695
-0.0045405123 0.12126499 -0.0048089055
0.0051000495 0.12119215 -0.0048540765
0.01557439 0.12102484 -0.0048695374
0.025197117 0.12074703 -0.0049674176
0.034576245 0.12054472 -0.0051736245
0.045014367 0.12036404 -0.0046603726
0.054594181 0.12015111 -0.0047447826
0.063768551 0.12004752 -0.0042091147
-0.063794725 -0.10038314 0.0055146362
-0.054927323 -0.10059207 0.0053560911
-0.045051072 -0.10076087 0.0052498393
-0.034696318 -0.10088357 0.0053153196
-0.025162194 -0.10094958 0.0051454264
-0.015074191 -0.10104147 0.0047492576
-0.0051650666 -0.10112537 0.0045167999
0.0051819244 -0.10116418 0.0051687076
0.014984418 -0.1012302 0.0051606307
0.025002142 -0.10130248 0.0051818467
0.035145491 -0.10146616 0.0047233761
0.045127563 -0.10156502 0.0048979204
0.055179074 -0.10151386 0.004878886
0.065011382 -0.1013377 0.0044326051
0.070583031 -0.10025822 0.0050581861
-0.071276627 -0.094783865 0.0050824764
-0.06821011 -0.09944392 0.0051942877
0.071730971 -0.095193021 0.0051693483
-0.071607396 -0.084813938 0.0046283533
0.072469689 -0.084987432 0.0048821294
-0.071552426 -0.075068548 0.0056246603
0.072801456 -0.0750563 0.0046797898
-0.071534641 -0.065296784 0.0046251868
0.072992124 -0.064912714 0.0042198696
-0.071421258 -0.054631967 0.004668518
0.073145829 -0.054994918 0.0050804773
-0.071261421 -0.04508917 0.005194841
0.073353641 -0.045472816 0.0043828217
-0.071129203 -0.034114014 0.0050500133
0.073551238 -0.034665368 0.0052123046
-0.071014263 -0.025117211 0.0044151456
0.073678106 -0.024792917 0.0046797139
-0.070931889 -0.014664432 0.0053467466
0.073840663 -0.015090597 0.0049342071
-0.070959054 -0.0051230979 0.0050078332
0.073992603 -0.0047629168 0.0047337539
-0.070902817 0.0048778048 0.0047560274
0.074121185 0.0052258112 0.0051881233
-0.070979662 0.015153812 0.0047995625
0.074264474 0.015130945 0.0052049416
-0.070998162 0.025103951 0.0050959396
0.074387901 0.025053555 0.0051293257
-0.070970893 0.034682166 0.0052607623
0.074455291 0.035110768 0.0056831017
-0.07091587 0.044427678 0.0049153627
0.07451497 0.044832036 0.0048944224
-0.070788078 0.055307172 0.0052846624
0.07459037 0.05471449 0.0049467073
-0.070678987 0.064626597 0.0048719337
0.074692585 0.064983554 0.0049747932
-0.070546843 0.074782215 0.004919298
0.074729174 0.074800335 0.0052222698
-0.070366345 0.08549092 0.0049936818
0.074755862 0.085047908 0.0047588875
-0.070155509 0.093693055 0.0043142764
-0.069919012 0.097901821 0.0065997322
0.074820824 0.095154941 0.0050233952
-0.069516242 0.105129 0.0045884098
0.07485301 0.10559839 0.0054145101
-0.06825798 0.11482156 0.0046751276
0.049703121 0.11997432 0.0095091844
0.05564107 0.11991441 0.0082977647
0.065715849 0.11979172 0.0057209227
0.073610738 0.11530149 0.0050404179
-0.062924713 0.12100412 0.0051067686
-0.05542054 0.12118199 0.0048019411
-0.044970658 0.12119972 0.0049510058
-0.034796473 0.12130389 0.0052339872
-0.025121992 0.12107056 0.0050970768
-0.015246973 0.12102018 0.0050001582
-0.0053262818 0.1210147 0.0051648151
0.0045165694 0.12089741 0.0050600972
0.015205112 0.12075915 0.0045182151
0.024642432 0.12057882 0.0051695248
0.035085581 0.12039688 0.0049651917
0.044551931 0.12024622 0.0044319793
0.054651886 0.12010132 0.0030902545
0.062176157 0.12002581 0.0016634482
-0.063455716 -0.10021488 0.015346564
-0.054353826 -0.10035906 0.015308162
-0.045279618 -0.1004791 0.015161958
-0.035192799 -0.10058867 0.015224415
-0.024734264 -0.10066219 0.015268644
-0.015126088 -0.1007305 0.015649572
-0.0046651205 -0.10084772 0.014950521
0.0052263425 -0.10090314 0.015593092
0.015451205 -0.10092995 0.015256631
0.025327841 -0.10099493 0.014695328
0.03501229 -0.10109956 0.014871099
0.044970427 -0.10111686 0.015373162
0.054731041 -0.10111061 0.014997722
0.064928673 -0.10103425 0.015072304
0.070250191 -0.10035962 0.015493796
-0.070982412 -0.094385989 0.014077776
-0.068576671 -0.099540845 0.014012191
0.071924396 -0.095102929 0.01430147
-0.071146846 -0.085542724 0.014966682
0.072577126 -0.085280687 0.015195278
-0.071050525 -0.074812114 0.014826356
0.072865084 -0.075021081 0.01470694
-0.070983872 -0.065102004 0.014995487
0.073058404 -0.064836487 0.014987045
-0.070931405 -0.054722406 0.015091001
0.073203377 -0.055298887 0.015011064
-0.070914306 -0.045106538 0.015368295
0.073392861 -0.045268077 0.014395546
-0.070822112 -0.035074793 0.015104867
0.073537856 -0.035494182 0.01472345
-0.070654966 -0.024556059 0.01459916
0.073704705 -0.025376825 0.014987943
-0.070554495 -0.015254563 0.015089941
0.073859982 -0.015044768 0.015222645
-0.070558913 -0.0050150421 0.014501452
0.074056618 -0.0049036923 0.015318393
-0.070515387 0.0051901615 0.015241261
0.074159913 0.004942283 0.015094122
-0.070573591 0.01463702 0.015160822
0.074265063 0.014791074 0.014845028
-0.070541434 0.024830133 0.014987064
0.074350275 0.024879914 0.014563016
-0.070463888 0.035228346 0.015018346
0.074414462 0.035512779 0.01495101
-0.070374578 0.045027938 0.014925543
-0.069990471 0.049208961 0.019772394
0.074437357 0.045097981 0.015628956
-0.070329398 0.054439805 0.014501226
-0.069959648 0.05550326 0.019426199
0.074506111 0.055221532 0.015272936
-0.070269838 0.064690374 0.013149149
-0.069908358 0.065404072 0.018772237
0.074629761 0.065277964 0.015306622
-0.070161588 0.074077927 0.013077983
-0.069849931 0.074605599 0.017950313
0.07469137 0.074895479 0.014822141
-0.070100956 0.084374264 0.011364056
-0.069800846 0.085134216 0.016400758
0.074754797 0.084822185 0.014957247
-0.070009999 0.091214791 0.010654094
-0.069650851 0.095520146 0.015114094
0.074874833 0.095102556 0.014751592
-0.069232687 0.10516577 0.014877013
0.074921213 0.10482656 0.015163663
-0.068160303 0.11500104 0.014810286
0.0044519366 0.11992035 0.019603597
0.017143669 0.11992352 0.018520283
0.025885021 0.11980949 0.017474942
0.035041537 0.11973335 0.016306031
0.044789009 0.11967635 0.015012876
0.055246633 0.11954141 0.015264858
0.064823918 0.11945435 0.014994094
0.073586307 0.11522733 0.015041452
-0.06312459 0.12070405 0.015729444
-0.055252261 0.12072773 0.015431976
-0.044584755 0.1206145 0.015347731
-0.034846436 0.12064485 0.015252381
-0.024810998 0.12050937 0.014674033
-0.014645771 0.12048466 0.015111358
-0.0053701722 0.12052336 0.01478589
0.0045150123 0.12046562 0.014279837
0.01405202 0.12036008 0.014002473
0.024169931 0.1202243 0.012730305
0.033891648 0.12008701 0.011640024
0.040084805 0.12004726 0.010149704
-0.064074077 -0.10017529 0.022683347
-0.055552941 -0.10012708 0.022012472
-0.045070384 -0.10023112 0.021953166
-0.035060406 -0.10023195 0.022431653
-0.024679063 -0.10034481 0.022111943
-0.014895819 -0.10038577 0.022468142
-0.0039820857 -0.10053155 0.022425815
0.0052879439 -0.1005569 0.022394158
0.015063277 -0.10062464 0.02240736
0.024934506 -0.10049224 0.022569994
0.03493169 -0.10070457 0.022259284
0.045806952 -0.10063925 0.022550104
0.054373853 -0.10076359 0.022514947
0.065777272 -0.10077039 0.022588622
0.071238607 -0.10048821 0.022252988
-0.070493057 -0.094900526 0.022325143
-0.065204307 -0.095305301 0.02576118
-0.054796562 -0.095193423 0.026343562
-0.045454685 -0.095682539 0.026359996
-0.034854699 -0.095374361 0.026233077
-0.024772447 -0.09487313 0.026209693
-0.014931487 -0.095241457 0.026059842
-0.0049275863 -0.095327802 0.025974836
0.0047009112 -0.095569223 0.02581208
0.015194614 -0.094885871 0.025763312
0.025135666 -0.095496483 0.025612323
0.034212854 -0.095358267 0.025595052
0.04480432 -0.095138095 0.025428127
0.054030504 -0.09506961 0.025310306
0.0647626 -0.094940133 0.024953445
0.071892038 -0.095555805 0.022991125
-0.070590496 -0.085168771 0.022435633
-0.065070361 -0.084929615 0.026019515
-0.054959163 -0.085005686 0.02682646
-0.044898171 -0.085179098 0.027072141
-0.035094686 -0.085698627 0.027146798
-0.024959324 -0.084886983 0.027098181
-0.015389084 -0.085193433 0.027023159
-0.0054952269 -0.084928073 0.026969247
0.0051385979 -0.08485014 0.026815513
0.015246803 -0.085334845 0.026680203
0.025014101 -0.085058868 0.026540374
0.03488699 -0.08491151 0.02636507
0.045372128 -0.08505559 0.026083469
0.054907013 -0.085178718 0.025620688
0.064974189 -0.085043386 0.024931677
0.072107956 -0.085683323 0.023137741
-0.070380911 -0.075279802 0.022920771
-0.065273866 -0.075372301 0.025907356
-0.055422131 -0.074982561 0.0267004
-0.045348402 -0.074796684 0.027165797
-0.034647427 -0.075277694 0.027379828
-0.024345703 -0.075068332 0.027409771
-0.0151864 -0.074800149 0.027503872
-0.0050716638 -0.075443052 0.027380491
0.005388435 -0.074525081 0.02711308
0.015287703 -0.075160019 0.026977323
0.02521022 -0.074955456 0.026724961
0.035140194 -0.07500305 0.026495975
0.04512395 -0.074919924 0.026075358
0.054855444 -0.075314097 0.025490388
0.064463079 -0.075357445 0.024847686
0.072261475 -0.074177139 0.022931848
-0.070332266 -0.065128721 0.02223237
-0.065493792 -0.06507799 0.025696125
-0.054908574 -0.06525252 0.026524303
-0.044802461 -0.065333031 0.027048741
-0.03455567 -0.065081015 0.027342582
-0.024576748 -0.065128796 0.027510568
-0.01502652 -0.064817756 0.027547954
-0.004936202 -0.06516505 0.027419968
0.0053748009 -0.064626746 0.027241293
0.014952786 -0.064853504 0.027089464
0.025017405 -0.064857855 0.026813548
0.035205569 -0.064918444 0.026466886
0.04481731 -0.065293707 0.026051089
0.054885417 -0.065068178 0.025422096
0.065152504 -0.065013155 0.024706401
0.072171256 -0.065656357 0.022951104
-0.070401601 -0.055252641 0.022209117
-0.064743377 -0.055353504 0.025788367
-0.055016097 -0.054931495 0.026550069
-0.044878002 -0.054694749 0.027084593
-0.03466795 -0.055073541 0.027451931
-0.024937594 -0.054861315 0.027617732
-0.014938875 -0.054879919 0.027611861
-0.0041693733 -0.055238809 0.027566662
0.0051521356 -0.055224415 0.027388694
0.014451629 -0.054821402 0.027162274
0.024903571 -0.055066504 0.026909746
0.034885228 -0.055203013 0.026489444
0.044658627 -0.054911874 0.026035488
0.05502582 -0.055259563 0.025374265
0.064926781 -0.055129886 0.024672717
0.072494537 -0.055156481 0.02269898
-0.070469543 -0.045184679 0.022345252
-0.065090373 -0.045373425 0.025763817
-0.055332057 -0.044841178 0.026598318
-0.045014247 -0.04486654 0.02714281
-0.034405574 -0.045017436 0.027520243
-0.02488433 -0.045035873 0.027720002
-0.014881716 -0.045149934 0.027721921
-0.004942229 -0.044908226 0.027629463
0.0050467923 -0.045208771 0.027490124
0.015610977 -0.045141988 0.02726298
0.024903839 -0.044961024 0.026958033
0.035528485 -0.045376644 0.026473675
0.044696033 -0.044812325 0.025980011
0.054681111 -0.044876736 0.025363998
0.064756453 -0.045220103 0.024664203
0.072515935 -0.045308251 0.022701256
-0.070385262 -0.034263574 0.022401223
-0.065438427 -0.035247128 0.025698233
-0.054711163 -0.035355039 0.026625084
-0.044832893 -0.035411898 0.027180126
-0.034728248 -0.035154138 0.027548151
-0.024844984 -0.034603193 0.027803591
-0.014756653 -0.034754355 0.027808098
-0.0047763633 -0.035278801 0.027726987
0.0052619022 -0.03532698 0.027595377
0.01538683 -0.034882449 0.027316144
0.024886345 -0.03455767 0.026974149
0.034724772 -0.035356246 0.026533861
0.045482568 -0.035121191 0.02594969
0.055054564 -0.034610756 0.025326815
0.065283768 -0.035189182 0.024578381
0.072809808 -0.035489962 0.02301492
-0.070287973 -0.024433488 0.022458792
-0.064949222 -0.024745744 0.025752967
-0.054827645 -0.025102427 0.026671628
-0.044987392 -0.024306919 0.027287995
-0.034665596 -0.02505409 0.027695032
-0.025117522 -0.025364649 0.02786855
-0.015014069 -0.024879325 0.027882008
-0.0049931915 -0.025175069 0.0277858
0.0051590293 -0.02467482 0.027609892
0.015102086 -0.024725102 0.027401313
0.025508923 -0.025398215 0.0270587
0.034923065 -0.024643801 0.026510749
0.044914726 -0.024784299 0.025954289
0.054967191 -0.025125518 0.025330059
0.06472306 -0.02524057 0.024573456
0.072726235 -0.025075959 0.022980921
-0.070277251 -0.01444005 0.021424057
-0.065674908 -0.014753141 0.025668088
-0.054864988 -0.015113714 0.026703786
-0.044872761 -0.014271207 0.027274022
-0.03507575 -0.014608893 0.027703179
-0.024854843 -0.014997447 0.027897354
-0.015680255 -0.015440778 0.02791086
-0.0049151531 -0.014880542 0.02783473
0.0052541406 -0.014283652 0.027600054
0.015365979 -0.015281253 0.027335288
0.025027176 -0.015056184 0.026954874
0.035239767 -0.014798564 0.026493851
0.045175973 -0.01494134 0.025885882
0.055507656 -0.015395151 0.02518232
0.065193169 -0.014644114 0.024408607
0.072457105 -0.015862949 0.023128668
-0.0701814 -0.0048665036 0.021719059
-0.065394104 -0.0049642357 0.025664816
-0.055143222 -0.0051605888 0.026656581
-0.044730831 -0.0050527444 0.027285837
-0.034296509 -0.0046146843 0.027723912
-0.024652228 -0.004835892 0.027922779
-0.014866649 -0.0052454835 0.027888507
-0.0052488171 -0.0049594324 0.027771579
0.0052189766 -0.0055326805 0.02761961
0.01476563 -0.004854287 0.027313028
0.02438896 -0.0049090842 0.026905216
0.034736995 -0.0052161184 0.02639129
0.04530362 -0.0050067543 0.025748989
0.05503197 -0.0048565404 0.025100416
0.065104149 -0.0050747367 0.02430569
0.072688572 -0.0051963762 0.023072492
-0.070207708 0.0058210162 0.021717547
-0.065423496 0.0049560163 0.025600243
-0.054661747 0.0055287313 0.02671227
-0.045200672 0.0051789992 0.027290111
-0.034890451 0.0048172059 0.027741889
-0.024527766 0.0049543944 0.027935816
-0.015254221 0.0048594815 0.027933111
-0.0046070018 0.0052716038 0.027796935
0.0055503598 0.0052448534 0.027582411
0.014769305 0.0049147909 0.027281448
0.024462324 0.0054600816 0.026867658
0.035056174 0.0049035084 0.026284099
0.044710428 0.0051378054 0.025672654
0.05561028 0.0048267087 0.024908969
0.065071687 0.0045289285 0.024196507
0.072817497 0.0050683529 0.022932127
-0.070207663 0.014978688 0.021832442
-0.065297693 0.014762675 0.025613215
-0.055041246 0.014552443 0.02662256
-0.0452515 0.014868358 0.027244706
-0.034435134 0.014954534 0.027799733
-0.024938885 0.015205972 0.027990369
-0.014864181 0.014681722 0.027969236
-0.0048218626 0.014502518 0.027819306
0.0048111626 0.015285863 0.027592199
0.0153412 0.015615923 0.027233658
0.025263777 0.01481006 0.026809448
0.034876611 0.014722219 0.02627461
0.045099512 0.015075567 0.025619745
0.054601509 0.015215319 0.024934327
0.064887777 0.01511529 0.024156949
0.072835132 0.01504303 0.022971828
-0.070124902 0.024109125 0.021900319
-0.065854855 0.025759608 0.025322545
-0.055558152 0.025002971 0.026559202
-0.045099545 0.024678312 0.027266951
-0.03464913 0.024732688 0.027758457
-0.025340144 0.025187759 0.027962398
-0.01532915 0.025249198 0.027946467
-0.004481608 0.025216604 0.027787164
0.005096796 0.024460277 0.027569169
0.015135749 0.024944264 0.027224761
0.025270699 0.025573719 0.026792957
0.034697421 0.025317768 0.026299715
0.045374904 0.024709003 0.025629971
0.054911226 0.02521465 0.024975669
0.065019526 0.025493037 0.024196833
0.072815217 0.024749147 0.022938307
-0.070042714 0.036470957 0.021720342
-0.065768465 0.034987461 0.025474878
-0.055009775 0.035498239 0.026604312
-0.044818558 0.035049584 0.027276948
-0.035484187 0.035382126 0.027691556
-0.025363028 0.034830518 0.0279372
-0.015054625 0.035258293 0.027886523
-0.0050028195 0.035113245 0.027747598
0.0043334491 0.034838203 0.027543152
0.015620303 0.0346171 0.027172577
0.024955336 0.035238005 0.026772749
0.034677733 0.034899186 0.02629989
0.04527314 0.035066526 0.025651665
0.055650752 0.034650512 0.024928484
0.065156393 0.034696899 0.024246844
0.07309901 0.034381013 0.022698751
-0.070018865 0.041536823 0.021442795
-0.066645414 0.045099951 0.024555007
-0.055089042 0.044504289 0.026597094
-0.044732876 0.044885639 0.027254712
-0.035091821 0.044752199 0.027665157
-0.025065085 0.045077294 0.027895564
-0.014372422 0.045011479 0.027801219
-0.0055768234 0.044739354 0.02765769
0.004927271 0.045043267 0.027435042
0.015030027 0.044969559 0.027141161
0.025149714 0.044526272 0.026745737
0.034287844 0.045339331 0.026293669
0.0452988 0.044420239 0.025654975
0.055019662 0.044531371 0.024991931
0.065204136 0.044933923 0.024302019
0.072954752 0.045348007 0.022900186
-0.06603428 0.054749686 0.024810333
-0.054587204 0.055020206 0.026609903
-0.045488432 0.055318002 0.027156705
-0.034417115 0.055407021 0.027644852
-0.024927191 0.055046 0.027832758
-0.015299763 0.054762237 0.027768748
-0.0049009235 0.055264119 0.027587892
0.0046813823 0.055436477 0.027357636
0.015155369 0.055034596 0.027069634
0.025215941 0.055181369 0.026685722
0.03501115 0.054869451 0.02621798
0.044666089 0.054880857 0.025709026
0.05479737 0.055415723 0.025053767
0.064742237 0.055196185 0.024319071
0.073044814 0.054561611 0.022998556
-0.06669677 0.065094382 0.024401493
-0.054950532 0.064675815 0.026612476
-0.044828612 0.065363199 0.027205138
-0.035837747 0.065285034 0.027532266
-0.025047721 0.065033197 0.027766483
-0.015269837 0.064652503 0.02768288
-0.0056904685 0.065988444 0.027493007
0.0050591687 0.064598456 0.027273644
0.015154615 0.065087467 0.026994778
0.024889538 0.064990625 0.026665123
0.034598973 0.065073133 0.026227565
0.045163494 0.064977087 0.025652027
0.054825127 0.064487703 0.02501764
0.065183595 0.064785019 0.024233025
0.073268197 0.064705417 0.022858758
-0.066668846 0.075195163 0.024616187
-0.05515312 0.075395107 0.026761476
-0.045074385 0.07526274 0.027294487
-0.034733959 0.074471608 0.02763073
-0.024497863 0.075325586 0.027686363
-0.015279711 0.075235464 0.027561773
-0.0048325565 0.074750885 0.02733919
0.0050417422 0.074872032 0.027162757
0.014715824 0.074796028 0.026926911
0.024819901 0.075408652 0.026596637
0.035326149 0.074800052 0.026170874
0.045280568 0.07514029 0.025633758
0.054473437 0.075268492 0.02504308
0.065678187 0.074803099 0.024214964
0.073036119 0.075250082 0.022860475
-0.066658281 0.085024968 0.024516633
-0.055528678 0.08483953 0.026637804
-0.045445178 0.08488331 0.027119553
-0.034621857 0.085105628 0.027392957
-0.025331743 0.085254677 0.027507162
-0.015186386 0.085044108 0.027391434
-0.0050140042 0.085337207 0.027142035
0.0050112917 0.085294925 0.027003124
0.01511504 0.085127525 0.02679158
0.024859633 0.084774449 0.026502941
0.035089843 0.084651187 0.02610058
0.044524953 0.08571659 0.025619412
0.054574095 0.085164212 0.024991216
0.064644471 0.084952712 0.024231505
0.072885178 0.0848158 0.02297131
-0.065919198 0.095069535 0.024814457
-0.055400584 0.094883703 0.026586374
-0.045166139 0.095629305 0.02700239
-0.034791566 0.094571933 0.027212502
-0.024842687 0.094885327 0.027293198
-0.015096252 0.095159896 0.027172947
-0.0051668538 0.095508739 0.026937222
0.0047273939 0.095284738 0.026842551
0.015367998 0.095321722 0.026623344
0.025094021 0.095587827 0.026359104
0.035244457 0.094689175 0.026001569
0.04495408 0.095275685 0.025533363
0.05499588 0.095001638 0.024899719
0.064907745 0.094774216 0.024157414
0.073098585 0.094949469 0.022765053
-0.066244625 0.10444493 0.024572283
-0.054695591 0.10465902 0.026592558
-0.045123007 0.10457356 0.026897799
-0.034546632 0.10517363 0.02699564
-0.025340794 0.10514428 0.027049948
-0.014917803 0.1048506 0.026964186
-0.005309891 0.10490483 0.02673848
0.0050689941 0.10522623 0.026641678
0.015166786 0.10526288 0.026426146
0.024859782 0.10496671 0.026171513
0.035211466 0.10471948 0.025828389
0.045114931 0.1048918 0.025391378
0.054380141 0.1046811 0.024872588
0.065539725 0.10515694 0.024122942
0.073476002 0.10517514 0.022722758
-0.06588196 0.11540395 0.024597583
-0.055381749 0.11508451 0.026105704
-0.044786066 0.11581926 0.02576253
-0.034832921 0.11591084 0.025458606
-0.02529216 0.11673703 0.024799099
-0.014938666 0.1162395 0.024920929
-0.0048341285 0.11596172 0.024853831
0.0050956826 0.11592918 0.024424044
0.015514961 0.11635984 0.024115194
0.025166921 0.11562542 0.024388585
0.035223201 0.11598375 0.024070187
0.044883214 0.1156645 0.023932194
0.054839559 0.11627781 0.023507796
0.065370403 0.11578298 0.023209989
0.07259167 0.11502569 0.022834308
-0.063557781 0.12046104 0.022232303
-0.054899722 0.12020801 0.022203745
-0.045551118 0.12013997 0.021411501
-0.034028273 0.12007465 0.020705173
-0.024423102 0.12004618 0.020395756
-0.014664239 0.12005126 0.020665588
-0.0053619957 0.12002272 0.02041007
