# .PCD v0.7 - Point Cloud Data file format
VERSION 0.7
FIELDS x y z
SIZE 4 4 4
TYPE F F F
COUNT 1 1 1
WIDTH 598
HEIGHT 1
VIEWPOINT 0 0 0 1 0 0 0
POINTS 598
DATA ascii
-0.0044652922 -0.10056569 -0.031293321
0.0041616731 -0.10053223 -0.031128338
-0.011801508 -0.095029928 -0.030942533
-0.0048746448 -0.095183775 -0.032494746
0.0051661944 -0.095708854 -0.032470543
0.012315893 -0.09500163 -0.031118369
-0.012075724 -0.084947877 -0.030981818
-0.0052971523 -0.084743261 -0.032739863
0.0046510394 -0.084869131 -0.032981623
0.012906024 -0.084723808 -0.031132696
-0.012579358 -0.075117029 -0.030986421
-0.0048600044 -0.074888766 -0.032994017
0.0052605974 -0.075102933 -0.033136312
0.01306135 -0.074980184 -0.031305455
-0.012586032 -0.064827181 -0.031152874
-0.0050529484 -0.065280989 -0.033054199
0.0049738162 -0.065117978 -0.033336356
0.013237953 -0.065294981 -0.03134843
-0.012630569 -0.05498936 -0.031345651
-0.0051004975 -0.054783911 -0.033240438
0.0047307708 -0.054888591 -0.033552475
0.013333133 -0.054646872 -0.031521492
-0.012684228 -0.04513143 -0.031300683
-0.005259655 -0.04499897 -0.033273492
0.0052212705 -0.044674832 -0.033549834
0.013253221 -0.045126978 -0.031721145
-0.012575927 -0.034870636 -0.031401996
-0.0051739491 -0.035038926 -0.033440944
0.0049224212 -0.035031863 -0.033706002
0.013592211 -0.035369471 -0.031723466
-0.012708304 -0.024972226 -0.031310994
-0.0051170471 -0.0251016 -0.033470068
0.004710204 -0.02488393 -0.033795312
0.013473829 -0.024767466 -0.031834714
-0.013110917 -0.014863087 -0.031290121
-0.0053423201 -0.014930113 -0.033562187
0.005199742 -0.014828264 -0.033829506
0.013569114 -0.014971545 -0.031908739
-0.013360706 -0.0049445797 -0.031376343
-0.0050333729 -0.0050840005 -0.033853512
0.0054361513 -0.005315071 -0.033941157
0.013863862 -0.0049938601 -0.031834967
-0.013408095 0.0047048545 -0.031502493
-0.0050897961 0.0049429508 -0.033982974
0.0048155352 0.0049401345 -0.034312278
0.014198828 0.0049179429 -0.031861678
-0.013272185 0.014944923 -0.031663921
-0.0049210116 0.01539077 -0.034060031
0.0048468038 0.015198638 -0.034198675
0.014271035 0.014948088 -0.03192402
-0.013816719 0.025317885 -0.031687755
-0.0049233665 0.025057927 -0.03434822
0.0051356456 0.024946313 -0.034375075
0.014237028 0.025329284 -0.03187051
-0.014085843 0.035137527 -0.032016817
-0.0050024581 0.035016518 -0.034750942
0.0048747086 0.035285298 -0.03481584
0.014481729 0.035187013 -0.031960879
-0.013593162 0.04505438 -0.032096766
-0.005246249 0.045366913 -0.034400471
0.0048012021 0.044929225 -0.034634102
0.014368198 0.044512611 -0.0319921
-0.011948526 0.052112699 -0.03096699
-0.0049567646 0.053006593 -0.031977616
0.0052140485 0.052834194 -0.032171648
0.01249456 0.051912859 -0.031059727
-0.021332959 -0.10055217 -0.022259252
-0.014878169 -0.10066217 -0.023954168
-0.0054091164 -0.10068914 -0.025006808
0.0047523528 -0.10068163 -0.024499224
0.01456862 -0.10055188 -0.024519967
0.02207195 -0.10044091 -0.022292074
-0.023492511 -0.095216081 -0.023250924
-0.016074944 -0.096275941 -0.027104944
-0.0056123072 -0.099625289 -0.024669612
0.0050912225 -0.099630676 -0.024958247
0.016303858 -0.096858703 -0.027123066
0.023738852 -0.095181152 -0.023890732
-0.02358298 -0.085167453 -0.023499958
-0.017202562 -0.085375726 -0.02830158
0.017650316 -0.084905632 -0.028661802
0.024225222 -0.084923886 -0.024052376
-0.0238184 -0.074975446 -0.023369471
-0.017297965 -0.074871846 -0.028351687
0.017822994 -0.075531721 -0.028927524
0.024360547 -0.075416267 -0.024124637
-0.023764309 -0.064888842 -0.023563955
-0.017394289 -0.065008171 -0.028407145
0.01798146 -0.065008223 -0.028871734
0.024562776 -0.065210372 -0.024113165
-0.023773769 -0.054818623 -0.023620538
-0.017364388 -0.054747529 -0.028493624
0.018143304 -0.055711217 -0.02895344
0.024405325 -0.055120993 -0.024361588
-0.023980221 -0.044936359 -0.023531562
-0.017573433 -0.044959363 -0.028454514
0.018377274 -0.04525999 -0.028918315
0.024597364 -0.044642434 -0.024249345
-0.023644289 -0.035139423 -0.023962917
-0.017672192 -0.034805514 -0.028565016
0.018486846 -0.034903791 -0.029011486
0.024336359 -0.03478536 -0.024658632
-0.023939718 -0.025034497 -0.02372412
-0.017444685 -0.024865912 -0.028614499
0.018573591 -0.024889229 -0.029066652
0.024385653 -0.024870295 -0.024620725
-0.023682948 -0.015004469 -0.023978582
-0.017434888 -0.015360572 -0.028720457
0.01853733 -0.015155666 -0.029058499
0.024715463 -0.01497646 -0.024463253
-0.023676228 -0.0049473271 -0.02407809
-0.017682074 -0.005210645 -0.028697601
0.018693021 -0.0048828996 -0.029212918
0.0246935 -0.0050401865 -0.024778128
-0.024006462 0.004899695 -0.023925507
-0.017948996 0.004449483 -0.028721813
0.018860804 0.0055564712 -0.02914279
0.024822436 0.0050211004 -0.024736177
-0.024193011 0.015055944 -0.02386767
-0.018090857 0.015145352 -0.028885277
0.018839378 0.016150143 -0.029147387
0.024854122 0.015018634 -0.024579694
-0.023921488 0.024796659 -0.024502533
-0.018276701 0.025143972 -0.029205769
0.018948596 0.024817826 -0.028935261
0.024519451 0.025022393 -0.024712566
-0.02429451 0.035082906 -0.024702458
-0.018816525 0.035162065 -0.029219255
0.018895719 0.034515001 -0.029256895
0.024818333 0.035071973 -0.024831096
-0.024298944 0.044866879 -0.024524966
-0.018333683 0.045682635 -0.02906788
0.018788865 0.045210697 -0.029265869
0.024690373 0.045088664 -0.024835184
-0.022452287 0.052912652 -0.022983499
-0.015355203 0.05556136 -0.025561292
-0.0054058791 0.057480175 -0.027607163
0.005658417 0.057973318 -0.027313331
0.015495459 0.0556412 -0.025960902
0.02295718 0.05326638 -0.022769034
-0.011706203 0.060949124 -0.021401906
-0.0042631053 0.061564334 -0.022241788
0.0046771378 0.061595496 -0.022621481
0.012801402 0.060777996 -0.021407131
-0.030459896 -0.10039023 -0.010544945
-0.024499472 -0.10054389 -0.014374471
-0.015083571 -0.10059098 -0.015114874
-0.004965018 -0.10057023 -0.015008331
0.0052947397 -0.10055032 -0.015022598
0.014516247 -0.10052978 -0.015064231
0.024285473 -0.10046194 -0.014686062
0.030780895 -0.10013414 -0.01045803
-0.031255525 -0.094949953 -0.012620585
-0.027123639 -0.096935973 -0.016273387
-0.014776731 -0.099571586 -0.014774039
-0.0052143554 -0.099557087 -0.015077599
0.0053863125 -0.099542238 -0.014879688
0.014617898 -0.099534571 -0.015137785
0.026653161 -0.097825862 -0.016029123
0.031896532 -0.094916105 -0.013394943
-0.031272285 -0.084410533 -0.012963641
-0.028315818 -0.085270397 -0.017610267
0.028919777 -0.084883206 -0.018569581
0.031955767 -0.085122123 -0.013986968
-0.031338375 -0.075713098 -0.01283479
-0.028394524 -0.075130016 -0.017596355
0.029084636 -0.07497149 -0.01853352
0.031967908 -0.074821092 -0.014133789
-0.031188382 -0.065000825 -0.012997311
-0.028406117 -0.065301627 -0.017674053
0.029075341 -0.065032132 -0.01886614
0.032250088 -0.064872675 -0.013770152
-0.031304009 -0.05499915 -0.012963712
-0.028394932 -0.055009749 -0.017891778
0.0291302 -0.054963298 -0.018874314
0.032085054 -0.054910846 -0.014190164
-0.031283543 -0.044950247 -0.013137752
-0.028517516 -0.044955604 -0.0176688
0.029368458 -0.045122597 -0.018789362
0.03198503 -0.045026172 -0.014223618
-0.031272434 -0.035408143 -0.012966376
-0.028342543 -0.034951448 -0.018014202
0.029355349 -0.03541825 -0.018940402
0.031987291 -0.035015501 -0.014371776
-0.031323411 -0.024592087 -0.012822139
-0.028311094 -0.024819903 -0.017812062
0.029220525 -0.025102489 -0.018915281
0.031981889 -0.025019629 -0.013989402
-0.031280138 -0.0148149 -0.013004952
-0.028473457 -0.015020456 -0.017731825
0.029285323 -0.015223955 -0.018697813
0.03188495 -0.014944939 -0.014070773
-0.031285565 -0.004845154 -0.013202732
-0.028726324 -0.0054451548 -0.017699046
0.029237406 -0.0055005252 -0.019041302
0.032138608 -0.0048964354 -0.013850677
-0.031240677 0.0048628943 -0.013089373
-0.028531177 0.0049594189 -0.018002912
0.029447634 0.0044729463 -0.019048288
0.032079931 0.0049417582 -0.014319113
-0.031257797 0.014541293 -0.013111806
-0.028695097 0.014923368 -0.018047435
0.02938021 0.014820328 -0.018791215
0.03199644 0.014896438 -0.014376289
-0.031424697 0.025206519 -0.013606211
-0.028754586 0.024677204 -0.018008156
0.029245974 0.024227664 -0.018817505
0.032129642 0.025314812 -0.013978684
-0.031770099 0.035500303 -0.013890568
-0.029077431 0.035632253 -0.018419838
0.029328112 0.034777869 -0.019025721
0.032132629 0.03483839 -0.014455251
-0.031627398 0.044786304 -0.013608979
-0.02900289 0.046125058 -0.017875461
0.02917891 0.046255231 -0.018897038
0.031975169 0.044944327 -0.014387169
-0.030415734 0.051683031 -0.011857839
-0.025581121 0.055551574 -0.015144588
-0.017668558 0.059272546 -0.018137543
0.018272648 0.05926824 -0.018403679
0.025838003 0.055862937 -0.015537106
0.031189842 0.051712323 -0.012767602
-0.021154743 0.060796339 -0.012144311
-0.014186282 0.063358992 -0.014314773
-0.0055940659 0.065499455 -0.016704347
0.0053260881 0.065987982 -0.016872391
0.01422019 0.063733615 -0.014104871
0.02171002 0.060817648 -0.012332121
-0.012026097 0.07587678 -0.012457255
-0.0050150282 0.07533332 -0.016401235
0.0053668637 0.074940234 -0.016636401
0.012373796 0.075720847 -0.012797031
-0.013160259 0.08004678 -0.012315094
-0.0053328462 0.080061473 -0.017088475
0.0025677586 0.080074072 -0.018385697
0.013528747 0.080089226 -0.012818241
-0.030958027 -0.10031542 -0.0058590225
-0.025139457 -0.10045873 -0.0047117802
-0.014619681 -0.10044775 -0.0051539824
-0.0050042262 -0.10042527 -0.0047743656
0.0046629291 -0.10041479 -0.0052692494
0.01491274 -0.10039101 -0.0053695436
0.025390189 -0.10035807 -0.0050855819
0.03138442 -0.10030724 -0.004777269
-0.033107422 -0.095641099 -0.0044072894
-0.025259895 -0.099380851 -0.0049722488
-0.015303729 -0.09941835 -0.0053684274
-0.0049683703 -0.09943109 -0.005323817
0.005010305 -0.099410318 -0.0052210409
0.015027209 -0.099386416 -0.0050400491
0.02523624 -0.09936022 -0.0050105033
0.034132238 -0.095447451 -0.0047111022
-0.033604875 -0.085162662 -0.0048770732
0.034828242 -0.084718853 -0.0048738886
-0.033586126 -0.074998356 -0.0048785768
0.034939881 -0.075118259 -0.0048086718
-0.033633202 -0.06504181 -0.0050899051
0.034906566 -0.064979769 -0.0050464887
-0.033737022 -0.054955203 -0.0046638413
0.034908593 -0.055099837 -0.0050482778
-0.033655491 -0.045090802 -0.004935245
0.034806579 -0.044909742 -0.0052015623
-0.033631049 -0.034795746 -0.0049504833
0.034816619 -0.034965109 -0.0051976354
-0.033450626 -0.025057076 -0.0051181931
0.034467123 -0.025019761 -0.0047803698
-0.03342944 -0.015190988 -0.0050413283
0.034548659 -0.015142847 -0.0049924441
-0.033594962 -0.0050256373 -0.0048970627
0.034526613 -0.0049718623 -0.0051687937
-0.033589888 0.0050028367 -0.004998927
0.034592513 0.0049095433 -0.0049782102
-0.033567909 0.014671751 -0.004995639
0.034549389 0.015124308 -0.0049671899
-0.033774946 0.024937456 -0.0049955929
0.03466804 0.025071515 -0.0047558248
-0.034028035 0.035097234 -0.0052803266
0.034641542 0.035120826 -0.0054092249
-0.033851471 0.044759363 -0.0051199496
0.034482263 0.045021392 -0.0053830016
-0.031500608 0.052646555 -0.0047975243
-0.027336096 0.057387993 -0.0054865279
0.02756252 0.057932094 -0.0056233583
0.032103106 0.053069919 -0.0045516789
-0.022384573 0.061315019 -0.0045526866
-0.01599241 0.065758459 -0.0055012587
0.016711239 0.065957658 -0.005306704
0.022676988 0.061482616 -0.0048457626
-0.015358482 0.075122453 -0.0053392872
0.016274489 0.074986711 -0.0053025419
-0.017278492 0.080044582 -0.0028611387
0.017424989 0.080144592 -0.0051319115
-0.030980835 -0.10030374 0.0047959252
-0.025363609 -0.10031279 0.0049238242
-0.014781354 -0.10029621 0.0049369526
-0.0053616632 -0.10027881 0.0050283987
0.0053476496 -0.10025391 0.0053000865
0.015204623 -0.10023104 0.0053531686
0.024863813 -0.10021826 0.0044834884
0.031094931 -0.1001549 0.0045851367
-0.033588286 -0.095294565 0.0048577357
-0.025391828 -0.099245556 0.0049346797
-0.014862897 -0.099275433 0.0055912286
-0.0051621711 -0.099263832 0.0054099099
0.0051909708 -0.099249244 0.0050130938
0.014908968 -0.09923216 0.004900319
0.02494029 -0.099213272 0.0048259837
0.03463592 -0.095680982 0.0050572893
-0.034015294 -0.085475929 0.00488425
0.035216711 -0.085171409 0.0048150425
-0.034070499 -0.075109027 0.0049459925
0.035181813 -0.074704133 0.004837059
-0.034036331 -0.064630516 0.0052452595
0.035188269 -0.065096714 0.0051614558
-0.034082495 -0.055092029 0.0050907331
0.035081606 -0.054880753 0.0053733173
-0.034173723 -0.044394676 0.004915799
0.03509634 -0.045258239 0.0052734795
-0.034133609 -0.034943659 0.0052405605
0.034965605 -0.035012301 0.0051540998
-0.033875123 -0.025054356 0.0048742327
0.034646269 -0.025249831 0.0048696673
-0.033727124 -0.01483196 0.0052518882
0.034536727 -0.014907924 0.0047959038
-0.033691447 -0.0051390203 0.0050038821
0.034392416 -0.005252141 0.0051515689
-0.033761367 0.0052256617 0.0046389243
0.034358352 0.0048569781 0.0054388652
-0.033753458 0.015109909 0.0046122801
0.034250569 0.014822172 0.0051222858
-0.033857301 0.024821585 0.0053483858
0.034719665 0.025268333 0.0046823132
-0.034063336 0.035137083 0.0050641531
0.034774151 0.03504302 0.0051736715
-0.033653747 0.044984601 0.0052804477
0.034497697 0.044875465 0.0049161143
-0.031535529 0.052228086 0.0042492412
-0.027080037 0.05762637 0.0051266891
0.027695427 0.057819664 0.0056706746
0.032239001 0.052952081 0.0045443275
-0.022222333 0.061125919 0.0044089225
-0.015728459 0.065552905 0.0053065838
0.016318409 0.065729879 0.0056712581
0.022766989 0.061519835 0.0046200543
-0.014613921 0.075044334 0.0053781187
0.015505079 0.074811071 0.0052446136
-0.016056463 0.080239065 0.0032312665
0.015704496 0.080162466 0.0064693061
-0.030448101 -0.10017715 0.010886366
-0.024555784 -0.10016948 0.013913709
-0.015005744 -0.10014974 0.014693757
-0.005371741 -0.10012328 0.015278881
0.0049639982 -0.10010303 0.015184354
0.015067565 -0.10008898 0.014708531
0.024416396 -0.10007548 0.014137263
-0.031690445 -0.095171876 0.014648858
-0.02681982 -0.097782075 0.016377397
-0.01517889 -0.099141493 0.014874657
-0.0049930704 -0.099118568 0.014586425
0.0051481873 -0.099092647 0.014951877
0.015023264 -0.099062815 0.015494952
0.025456017 -0.098835617 0.015711568
0.03260763 -0.09518037 0.014283968
-0.031652436 -0.085149743 0.014707107
-0.029429503 -0.084955297 0.018948847
0.029867722 -0.084685475 0.019707438
0.032624871 -0.085335776 0.015249689
-0.031775005 -0.074753344 0.014397459
-0.029343914 -0.075017318 0.0190586
0.02983007 -0.075833745 0.019613447
0.032626711 -0.075177886 0.014883749
-0.031891808 -0.065181963 0.014238258
-0.029225554 -0.064768314 0.019017668
0.029751936 -0.06366165 0.019488789
0.03258846 -0.064876102 0.014955916
-0.031875405 -0.05477304 0.014351252
-0.029141536 -0.054925174 0.0186023
0.029736988 -0.054845586 0.019413017
0.032593969 -0.0550947 0.014789513
-0.031844188 -0.044733852 0.014302707
-0.029238401 -0.044367407 0.018840395
0.029582361 -0.045180526 0.019503113
0.032497432 -0.04550283 0.014577996
-0.031982739 -0.035057344 0.013898261
-0.029295569 -0.034699555 0.018864093
0.029470339 -0.035040513 0.019308416
0.032221321 -0.034936715 0.014753378
-0.031587828 -0.024693036 0.013420072
-0.029157903 -0.024698045 0.018066613
0.029378517 -0.02453086 0.018887386
0.032042302 -0.02510922 0.014492296
-0.031677887 -0.015142573 0.013885425
-0.029122209 -0.014511421 0.018340813
0.029263785 -0.014664287 0.018815974
0.031782154 -0.015333362 0.014311558
-0.031748869 -0.0052564321 0.013548916
-0.029092645 -0.0050447471 0.01837098
0.02908152 -0.004993604 0.018815117
0.031791743 -0.0049121305 0.014251231
-0.031557187 0.0048752893 0.013874501
-0.029143209 0.0052312519 0.018329987
0.029076306 0.0052321083 0.018882034
0.03183414 0.0054303748 0.013984577
-0.031543978 0.014987468 0.013578493
-0.029168736 0.014746723 0.018373314
0.029126747 0.01503015 0.018449947
0.031897653 0.015103358 0.013530174
-0.031542696 0.024996795 0.013692356
-0.029084546 0.025211211 0.018284129
0.029092686 0.02418047 0.018606484
0.032152262 0.025272429 0.013624752
-0.031598821 0.035119541 0.013802393
-0.029004931 0.034808729 0.018289465
0.029336361 0.035426315 0.018873505
0.031980123 0.034837294 0.014553275
-0.03152696 0.044434361 0.013580153
-0.028575873 0.045797788 0.018279182
0.029201606 0.045414038 0.018471768
0.031840339 0.045218129 0.014073368
-0.030745115 0.050986532 0.011528078
-0.025242018 0.055344198 0.015094499
-0.017829347 0.05890302 0.018612873
0.018545117 0.058916774 0.01903096
0.025998039 0.055400912 0.015366428
0.030902309 0.051694147 0.012320212
-0.020816984 0.060374148 0.012610888
-0.014193129 0.063029364 0.013955157
-0.005370338 0.06558191 0.015596659
0.0053011063 0.065434679 0.015988013
0.014384339 0.063296244 0.014390142
0.021604283 0.060691308 0.012496016
-0.011313583 0.076393455 0.011038927
-0.0052672578 0.074934281 0.014497572
0.0051693404 0.075235151 0.014742106
0.011870557 0.075947382 0.011601789
-0.012068893 0.080282047 0.010993992
-0.0043961364 0.080389753 0.015943533
0.0049396302 0.080257542 0.015495034
0.012516364 0.080306292 0.011799562
-0.021411939 -0.1000349 0.022960765
-0.014901835 -0.10003672 0.022172233
-0.0050510117 -0.10002825 0.021433456
0.0034357093 -0.10001726 0.020980837
0.013531066 -0.10000744 0.020234186
-0.024812788 -0.095356077 0.024713613
-0.015142945 -0.099025927 0.025865609
-0.0049686129 -0.099298745 0.025398478
0.0051673199 -0.099374108 0.025591152
0.015186021 -0.099304862 0.025113987
0.025050581 -0.096200377 0.024851566
0.030389916 -0.093772896 0.020640651
-0.024892956 -0.084464334 0.02522281
-0.019559737 -0.082926139 0.029786555
0.025569299 -0.084877506 0.025630781
0.030428251 -0.084787115 0.020495396
-0.024698703 -0.075091325 0.02518142
-0.019489011 -0.075527005 0.02972406
0.019841747 -0.073938772 0.029968746
0.025231956 -0.07488206 0.025658429
0.030343266 -0.074019909 0.020301852
-0.02464303 -0.064933084 0.02527787
-0.019316843 -0.063548617 0.029612921
0.019720949 -0.064671531 0.029848967
0.025474541 -0.064968944 0.025363602
0.030228006 -0.064978763 0.020521546
-0.025057824 -0.055142287 0.024855483
-0.019088889 -0.055417728 0.029633531
0.019539569 -0.053655189 0.029672375
0.025292421 -0.05478029 0.02545426
0.030200744 -0.055804331 0.020317495
-0.024470352 -0.044959884 0.025427829
-0.019311951 -0.04501598 0.02938622
0.019287644 -0.044971809 0.029646508
0.025387721 -0.045122724 0.02509464
0.030145993 -0.046037298 0.020207146
-0.024734113 -0.034925442 0.024930077
-0.019085536 -0.035100553 0.029388677
0.019075217 -0.034058519 0.029448077
0.025122453 -0.034823824 0.025044123
0.03018559 -0.037877701 0.020117611
-0.024532346 -0.025067406 0.024716651
-0.019072335 -0.02493668 0.029274885
0.018922616 -0.025333572 0.029387804
0.02500727 -0.024895076 0.024743961
-0.024526834 -0.014967928 0.024519727
-0.018799931 -0.014550402 0.029229803
0.019054119 -0.014966041 0.029498318
0.024491148 -0.014904496 0.024955384
-0.024451084 -0.0048245941 0.024581525
-0.018610407 -0.0046148244 0.029152803
0.018885354 -0.004697849 0.029203199
0.024607148 -0.0049228026 0.024604985
-0.024560191 0.0049161264 0.024323795
-0.01829846 0.0045276522 0.02911289
0.018503381 0.0043400698 0.02940168
0.024479177 0.0051282677 0.024619689
-0.024147587 0.015140715 0.024518715
-0.018403588 0.015394523 0.029005045
0.018511778 0.015249081 0.029259749
0.024291426 0.015126283 0.024559874
-0.024162754 0.024966475 0.024361731
-0.018085793 0.024146665 0.029080791
0.018475018 0.024877265 0.028946521
0.02459405 0.025208622 0.024476612
-0.024398509 0.034715097 0.024027886
-0.018590976 0.035121374 0.028859191
0.018658808 0.034703884 0.028772768
0.024772612 0.034902941 0.024532262
-0.023870068 0.04509902 0.024145667
-0.018041193 0.045007143 0.028605714
0.018415401 0.045825608 0.028785774
0.024440413 0.044856261 0.024521472
-0.022329947 0.053061947 0.022339122
-0.014800318 0.055227827 0.025598049
-0.0052796882 0.057370398 0.027350219
0.0055943555 0.057588454 0.027347945
0.015262302 0.055449508 0.025707498
0.022803709 0.052662529 0.022823334
-0.011621168 0.060794417 0.021637132
-0.0046901922 0.061054595 0.022907441
0.0046130079 0.061319526 0.022785734
0.011913278 0.060683522 0.021527715
-0.020189788 -0.094506629 0.030178551
-0.014661858 -0.095442399 0.032562412
-0.0048312615 -0.096381448 0.034848198
0.0051506986 -0.096200474 0.034937482
0.014865908 -0.0956387 0.032952737
0.020786155 -0.093298599 0.030630456
-0.020152539 -0.085901633 0.030004891
-0.014848391 -0.085053466 0.032769769
-0.0049826838 -0.084944241 0.036018856
0.0049347337 -0.084784016 0.03619821
0.015185613 -0.08489342 0.033273797
0.020779964 -0.086077616 0.030840509
-0.01462891 -0.074835025 0.032711692
-0.00473527 -0.075093307 0.035946865
0.0050672819 -0.075393654 0.036060318
0.015223617 -0.075252488 0.033006988
0.020722764 -0.07478863 0.030642055
-0.020001374 -0.061761629 0.030039221
-0.014602352 -0.064682633 0.032721814
-0.005152449 -0.064973868 0.035678327
0.0051540174 -0.065006636 0.035844132
0.015177287 -0.065274037 0.032894056
0.0207709 -0.066664241 0.030346883
-0.020044502 -0.058071487 0.03003853
-0.014649109 -0.054927044 0.032625761
-0.0051447423 -0.054732647 0.035483491
0.0047946195 -0.05498533 0.035709862
0.014851968 -0.054891229 0.032768585
0.020490035 -0.055559386 0.030235764
-0.014692682 -0.044891112 0.032513835
-0.0050087855 -0.045030333 0.035450745
0.005283583 -0.045066975 0.035350595
0.014818765 -0.045053855 0.03263456
0.020320132 -0.046144783 0.03011423
-0.02012739 -0.035852499 0.030025389
-0.014467007 -0.034861248 0.032439362
-0.0049453434 -0.034919575 0.035263177
0.0049037603 -0.034945738 0.03515172
0.0148111 -0.035184063 0.032364696
0.020106765 -0.037130989 0.030027566
-0.014203312 -0.024894537 0.032216761
-0.0051241186 -0.024866393 0.034807429
0.0050447811 -0.024872053 0.034804013
0.014720209 -0.025128363 0.032026876
-0.014010017 -0.014803559 0.03212487
-0.005531142 -0.015202682 0.034658488
0.0049216542 -0.015039591 0.034811977
0.014596331 -0.014879368 0.031973016
-0.014190253 -0.0047295205 0.03196476
-0.0050536357 -0.0047678384 0.034636527
0.0051558162 -0.0052015251 0.034622986
0.014190628 -0.0050704191 0.031957917
-0.013944664 0.0052792756 0.03192804
-0.0050356556 0.0048208432 0.03440563
0.0052627185 0.0050134505 0.034463946
0.014157613 0.0049534068 0.031857718
-0.013873446 0.01498435 0.031888776
-0.0047403029 0.014960716 0.034215797
0.0050609694 0.014960751 0.034243461
0.013927015 0.014927397 0.031863112
-0.013754065 0.025196109 0.031739313
-0.0050660796 0.024869991 0.034108575
0.0049252538 0.024996834 0.034250066
0.014107524 0.024715003 0.031751294
-0.013777936 0.034742106 0.031601489
-0.0050367503 0.035004802 0.034037862
0.0050857244 0.034924332 0.034105733
0.014107391 0.035255462 0.031740833
-0.013067366 0.045216516 0.031447791
-0.0048976168 0.045149267 0.033517502
0.0050019608 0.045067195 0.033679418
0.013892233 0.044841945 0.031506997
-0.011554752 0.050912827 0.03067082
-0.0043750177 0.052577678 0.031633615
0.0046426165 0.052662332 0.031641986
0.01237283 0.051732939 0.030693429
