# .PCD v0.7 - Point Cloud Data file format
VERSION 0.7
FIELDS x y z
SIZE 4 4 4
TYPE F F F
COUNT 1 1 1
WIDTH 576
HEIGHT 1
VIEWPOINT 0 0 0 1 0 0 0
POINTS 576
DATA ascii
-0.022525772 0.0099828411 -0.060080931
-0.015173786 0.0090760328 -0.060421228
-0.0053365356 0.0082734637 -0.060632911
0.0043829847 0.0088868979 -0.060790863
0.013220224 0.0090388637 -0.060322076
-0.040868394 0.018568942 -0.060057163
-0.033822 0.017264208 -0.060991909
-0.024857417 0.015950397 -0.061293777
-0.014965435 0.015734954 -0.061941691
-0.0048111505 0.015474678 -0.06224037
0.0049407301 0.015511585 -0.062201049
0.014773401 0.015518103 -0.061660841
0.024071485 0.016385449 -0.061274491
0.033390056 0.017836247 -0.06066817
-0.050335743 0.02899462 -0.060328677
-0.043704677 0.025868421 -0.061228663
-0.034768078 0.025339833 -0.062284905
-0.0254975 0.025271729 -0.06322033
-0.014880043 0.024966938 -0.064206719
-0.0050284611 0.024920495 -0.064626738
0.0052310121 0.024918886 -0.064423621
0.015100502 0.024853041 -0.063912019
0.02483196 0.02494321 -0.062919974
0.034543511 0.025685821 -0.061810523
0.043671295 0.026771605 -0.061134975
0.050060503 0.029600199 -0.060210105
-0.051113714 0.032572392 -0.060592644
-0.04495734 0.03260893 -0.061932258
-0.035210323 0.032403369 -0.063639238
-0.025062887 0.03237161 -0.065155447
-0.015164172 0.032330271 -0.065850914
-0.0048334636 0.032136559 -0.066036016
0.0047079287 0.032234263 -0.065933011
0.014930332 0.032283105 -0.065451883
0.025154075 0.032384649 -0.064742304
0.035231367 0.03239191 -0.063269302
0.044516392 0.032741621 -0.062055454
0.051490296 0.032790553 -0.060740221
-0.020427 -0.010279121 -0.050133396
-0.014507877 -0.010797028 -0.050470617
-0.0047108843 -0.011643417 -0.050542764
0.0048128171 -0.011122497 -0.050783649
0.015010315 -0.010668389 -0.050251953
-0.041495308 -0.0012069066 -0.050722804
-0.0338968 -0.0026897518 -0.051705156
-0.024562627 -0.0040807631 -0.052386891
-0.014771099 -0.004509985 -0.053324968
-0.0052678129 -0.005093982 -0.053495646
0.005040328 -0.0048409253 -0.053634778
0.015076942 -0.0048357258 -0.052851841
0.024726393 -0.0038233728 -0.052283384
0.034216184 -0.0024165602 -0.051285204
0.041779604 -0.0010329323 -0.050442636
-0.051397406 0.0080337832 -0.051230788
-0.043904185 0.0060459608 -0.052977309
-0.035145301 0.0049305819 -0.054793272
-0.025212903 0.0049525392 -0.056529474
-0.015330605 0.0042733685 -0.057356037
-0.0049004196 0.0043967478 -0.057810232
0.0049371552 0.0044484083 -0.057879943
0.015420912 0.004800763 -0.057414904
0.024938948 0.0048244759 -0.056110919
0.034841694 0.0050442894 -0.054298103
0.044286329 0.0058573317 -0.052283593
0.051434677 0.0075488724 -0.051190984
-0.052510101 0.015960081 -0.052759133
-0.045314025 0.015182993 -0.056045357
-0.035429806 0.013959405 -0.058106821
-0.025730839 0.013070291 -0.058878209
-0.014624087 0.011887409 -0.059444021
-0.0045592608 0.011153173 -0.059663933
0.0051174294 0.011241765 -0.059591856
0.015159431 0.011950439 -0.059160929
0.025857439 0.013709155 -0.058825959
0.035137881 0.014394714 -0.057791278
0.044985682 0.015040899 -0.055726971
0.053263135 0.015927194 -0.052453224
-0.060386471 0.028867954 -0.050063327
-0.054544535 0.025365142 -0.054375336
-0.046483841 0.024198605 -0.058324434
-0.037175979 0.021795368 -0.059558403
0.029274251 0.020701222 -0.059933089
0.035935897 0.023015341 -0.059328679
0.045689236 0.024377842 -0.058161478
0.054831285 0.025289882 -0.054667044
0.060932327 0.027604438 -0.051214766
-0.060697891 0.032733731 -0.051237889
-0.055775281 0.032530054 -0.055525657
-0.048040021 0.031832442 -0.059345361
0.046214458 0.03143426 -0.059208188
0.055706158 0.032325704 -0.056370437
0.061531581 0.032495353 -0.052004673
-0.031197168 -0.020473309 -0.04065901
-0.024122527 -0.021280698 -0.041010819
-0.014721598 -0.021752913 -0.041642826
-0.005200733 -0.02199924 -0.042104259
0.0049464144 -0.02216658 -0.041915487
0.014959177 -0.021805957 -0.041516736
0.023234578 -0.021281516 -0.040950306
0.030885648 -0.020473223 -0.040240608
-0.041856915 -0.011734135 -0.042158302
-0.034749553 -0.014550806 -0.043307979
-0.025137031 -0.014944478 -0.045355678
-0.015041412 -0.015390125 -0.046515729
-0.0050128619 -0.015399558 -0.047136318
0.0052091507 -0.015805025 -0.046677798
0.01503778 -0.015434258 -0.046226397
0.024893144 -0.014878559 -0.045067508
0.034624826 -0.014255532 -0.043284357
0.042203441 -0.012257654 -0.041711614
-0.050889503 -0.0011930158 -0.0417354
-0.044516027 -0.0047680978 -0.044726864
-0.035599388 -0.0067772018 -0.048062529
-0.02679842 -0.0079760021 -0.049221642
-0.017039981 -0.0091793127 -0.049647518
-0.0090712942 -0.0098737162 -0.049902264
0.0071187504 -0.0098860376 -0.049907524
0.015203056 -0.0092690252 -0.049517728
0.025993621 -0.0082826708 -0.048804983
0.035384148 -0.0065578097 -0.047939621
0.044812948 -0.0048994133 -0.045007803
0.051341936 -0.0020845768 -0.0419962
-0.052596416 0.005836552 -0.044007394
-0.047676515 0.0030301614 -0.047345124
0.047074437 0.0022625257 -0.047947854
0.053637855 0.0055411365 -0.044584833
-0.060193449 0.018378941 -0.041055061
-0.055630073 0.01482505 -0.044995505
0.056711759 0.014704431 -0.045615397
0.060986724 0.017376076 -0.043105576
-0.061518177 0.025624443 -0.044195939
-0.057708945 0.024191333 -0.045267753
0.058767814 0.023532167 -0.046258233
0.062326916 0.025781766 -0.044247769
-0.062122561 0.033007201 -0.044221405
-0.059013378 0.032022949 -0.04650804
0.059643526 0.030883351 -0.049266595
0.063180201 0.03228391 -0.045399893
-0.022895547 -0.030419236 -0.030965241
-0.014579998 -0.030743273 -0.031399164
-0.0050969669 -0.030844575 -0.031665444
0.0041955104 -0.030779932 -0.031899452
0.013581521 -0.03071364 -0.031413693
0.022324136 -0.030269744 -0.030663257
-0.040681314 -0.020824855 -0.031134021
-0.034462959 -0.023178238 -0.034217171
-0.025186285 -0.025437962 -0.035460413
-0.01515739 -0.02601316 -0.03575157
-0.0049709016 -0.026380682 -0.036019467
0.0050510117 -0.026448062 -0.03603293
0.015030902 -0.02633513 -0.035611518
0.024937 -0.025319804 -0.035210762
0.034710642 -0.02336463 -0.034252677
0.040932827 -0.021435834 -0.03189278
-0.043409873 -0.014431665 -0.034627385
-0.037202764 -0.018284354 -0.037363097
-0.029390706 -0.019985735 -0.039777536
0.028993359 -0.019707449 -0.039721824
0.037089754 -0.018269394 -0.038191233
0.044253569 -0.014947892 -0.034821924
0.050306413 -0.010500687 -0.031162392
-0.05161871 -0.003430306 -0.034270592
-0.047707438 -0.0063270205 -0.035943374
0.048417985 -0.0072521605 -0.03652136
0.052614868 -0.0038427101 -0.034382187
-0.054886024 0.0050702249 -0.034896728
-0.049892925 0.00017879409 -0.03885195
0.056330796 0.0045790933 -0.03502344
0.060397401 0.0091668172 -0.032368306
-0.06119075 0.016960248 -0.034316652
-0.057409219 0.014206807 -0.03571818
0.058582116 0.01356211 -0.035787571
0.061696205 0.015508108 -0.034390017
-0.062753543 0.025801968 -0.034653537
-0.059131801 0.02324895 -0.036415655
0.05992775 0.020506945 -0.039266665
0.063653626 0.025063161 -0.034735009
-0.063726738 0.032667886 -0.035522372
0.065667249 0.032274969 -0.035060812
-0.030800829 -0.030508326 -0.02292775
-0.02513974 -0.030904753 -0.025307857
-0.015003653 -0.030779341 -0.027538378
-0.004853182 -0.030650267 -0.028046617
0.0051128389 -0.030719686 -0.02783994
0.01600075 -0.030888552 -0.026228776
0.024824923 -0.030946663 -0.025304265
0.030937191 -0.030258512 -0.025520541
-0.041402344 -0.021485653 -0.024691433
-0.035059441 -0.025680317 -0.025501925
-0.024502808 -0.027171392 -0.025040895
-0.014580534 -0.027483571 -0.024214484
-0.005248385 -0.027512178 -0.024307309
0.0047276174 -0.027444147 -0.024274772
0.014560538 -0.027200079 -0.024168788
0.025670322 -0.027427888 -0.025383985
0.035275713 -0.026534203 -0.025189148
0.04181502 -0.022291856 -0.024171907
-0.050425924 -0.010572073 -0.022630347
-0.045039237 -0.015320295 -0.024874473
-0.03944432 -0.01974842 -0.02936523
0.046306077 -0.015601059 -0.025225908
0.050942283 -0.01135278 -0.025044067
-0.052766424 -0.0042791334 -0.024772892
-0.048809268 -0.0076924125 -0.025867997
0.049266264 -0.0091437949 -0.026969209
0.053479403 -0.0046876725 -0.02503385
-0.06045242 0.0090455078 -0.022507608
-0.05657623 0.0048517338 -0.025232267
0.057367556 0.0038964231 -0.02548489
0.061074793 0.0075511434 -0.024112394
-0.0618634 0.015344801 -0.024647417
-0.058597438 0.014307285 -0.025468696
0.059372965 0.011995826 -0.026032427
0.062510349 0.015584463 -0.024999438
-0.063400127 0.024846179 -0.025077753
-0.059848666 0.020572968 -0.029164899
0.065003894 0.025130138 -0.024889419
-0.065175518 0.03256816 -0.025106598
0.066737451 0.032243311 -0.025222016
-0.031175788 -0.030446425 -0.014304141
-0.027435243 -0.030542111 -0.015330013
0.026131449 -0.030388022 -0.017250692
-0.042088553 -0.02199138 -0.014908173
-0.035781663 -0.026185146 -0.014801982
-0.024242202 -0.027271524 -0.015040531
-0.015101168 -0.027442016 -0.014711988
-0.004764257 -0.027210305 -0.014937814
0.0052484344 -0.027271237 -0.014930794
0.015034202 -0.027664252 -0.015315811
0.024773868 -0.027772157 -0.014279129
0.035145137 -0.02710004 -0.014751076
0.042596199 -0.022747725 -0.015113246
-0.050939001 -0.011652756 -0.01454807
-0.046624012 -0.015649192 -0.014796319
0.047383174 -0.015895884 -0.015115366
0.05156754 -0.01230476 -0.014276718
-0.053507574 -0.0049613714 -0.014987264
-0.049455974 -0.0091539389 -0.016146062
0.049991474 -0.0099790879 -0.019348159
0.05457845 -0.0051976843 -0.014999649
-0.060956061 0.0077112122 -0.014273042
-0.057221457 0.0041362811 -0.015541725
0.058089085 0.0042003673 -0.015330209
0.061628677 0.0063120201 -0.014667465
-0.062627696 0.015662648 -0.014712878
-0.059320133 0.01252743 -0.015764864
0.059893399 0.010494464 -0.017217733
0.063290253 0.015045903 -0.015086737
-0.064560629 0.024920486 -0.0148327
0.065931037 0.02518942 -0.015233338
-0.066389821 0.032915074 -0.015112177
0.067514949 0.032285657 -0.015002022
-0.030131934 -0.030062363 -0.0098043485
-0.028555319 -0.030029619 -0.0096577294
-0.042508565 -0.022587759 -0.0048628296
-0.034818288 -0.027092215 -0.005041278
-0.025352916 -0.027807679 -0.0048484723
-0.014822445 -0.027353192 -0.0050144936
-0.0048516146 -0.027287386 -0.0050236355
0.0051328507 -0.027316671 -0.0050645485
0.015235137 -0.027112778 -0.0050908667
0.024936413 -0.027721461 -0.0051782033
0.03548279 -0.027324067 -0.0050033065
0.043201581 -0.022808619 -0.0050633582
-0.051485859 -0.012280426 -0.0043085809
-0.047232449 -0.016053006 -0.0051929979
0.047647722 -0.016565477 -0.0050791898
0.051875245 -0.012453962 -0.0050114607
-0.054391861 -0.004925068 -0.0048011099
-0.049908556 -0.0099657504 -0.0077441446
0.055318736 -0.0048853727 -0.0050979676
-0.061338089 0.0067918496 -0.0048405658
-0.057790406 0.0040721511 -0.005070962
0.058532286 0.0044614021 -0.004751212
0.061750788 0.0059442832 -0.0046941615
-0.063028745 0.015313162 -0.0046826713
-0.059632134 0.011013547 -0.0049753208
0.063790329 0.015387163 -0.0045830873
-0.06550958 0.025229214 -0.0048520057
0.066458099 0.025147164 -0.0047624041
-0.067249455 0.03281432 -0.0049040136
0.068215311 0.032415975 -0.0048739901
0.070085846 0.033646703 -0.0024143441
-0.042489279 -0.022630926 0.0051903892
-0.035161015 -0.027043894 0.0049612038
-0.024900926 -0.027630137 0.0051939068
-0.015115542 -0.027209638 0.0049915863
-0.0050549679 -0.027310841 0.0048602754
0.0050445725 -0.027003637 0.0048128408
0.015056826 -0.027061647 0.0049878256
0.024977572 -0.027877074 0.0050176629
0.035295095 -0.027197413 0.0051252707
0.043148555 -0.023000652 0.0051505831
-0.051667407 -0.011941317 0.0057396996
-0.047263198 -0.016033858 0.0051358105
0.047598027 -0.016547751 0.0052707018
0.051504519 -0.012801634 0.0047723306
-0.054482225 -0.0048521147 0.0051970761
0.055278603 -0.0050819642 0.0048893909
-0.061363 0.0063316231 0.0049562287
-0.057984803 0.0044245156 0.0050634602
0.058211535 0.0043439101 0.0050314669
0.061851911 0.0060192682 0.0047654128
-0.063165344 0.015434165 0.0050276727
-0.059689727 0.010781127 0.005415984
0.063843384 0.014938228 0.0052105142
-0.065168805 0.024903528 0.0048673782
0.066351712 0.025358576 0.0051301587
-0.067231566 0.032840863 0.0048822747
0.068217501 0.032339428 0.0049222177
0.070101351 0.033784881 0.0028735411
-0.030617764 -0.030010667 0.019715328
-0.02840665 -0.03007403 0.019441608
0.02703814 -0.03034527 0.017372608
0.030647535 -0.030233307 0.018884538
-0.042524643 -0.022277029 0.015023218
-0.035162095 -0.026886107 0.015032263
-0.025207147 -0.027852736 0.014853598
-0.015046527 -0.027553208 0.015079178
-0.0049391282 -0.027527751 0.015253482
0.0048388308 -0.027473193 0.014950745
0.015393778 -0.027400859 0.014817208
0.024647951 -0.027548088 0.014484136
0.035471801 -0.027066695 0.014723523
0.042548127 -0.022624904 0.015106007
-0.051461816 -0.01198671 0.014885236
-0.046888586 -0.015782524 0.015049884
0.04718205 -0.016072417 0.015270323
0.051562056 -0.012361364 0.014944721
-0.05423199 -0.0048316065 0.015031118
-0.04982828 -0.0094862795 0.016394079
0.04975633 -0.0098493062 0.018736452
0.054608759 -0.004979175 0.014764303
-0.06124812 0.0069839535 0.015503878
-0.057720251 0.0040635997 0.015140893
0.05793244 0.0040426184 0.014976527
0.061628006 0.0062606088 0.014937187
-0.062894613 0.015628811 0.01520616
-0.059530944 0.011472328 0.014957755
0.059732098 0.011266854 0.017399408
0.063344941 0.015383651 0.014680968
-0.064928077 0.025028355 0.015258725
0.065672666 0.024745373 0.014845228
-0.066985942 0.032894429 0.015096967
0.067351669 0.032415014 0.014657688
-0.031265952 -0.030396413 0.024769202
-0.026189683 -0.0307434 0.025955766
-0.01674553 -0.030269684 0.028649325
-0.0059645316 -0.030167677 0.029851748
0.0077480231 -0.030106328 0.029676605
0.017773086 -0.03042536 0.028245818
0.025072876 -0.03071581 0.025217248
0.031160779 -0.03030161 0.025198942
-0.041841436 -0.02200266 0.024909711
-0.035633609 -0.025986167 0.025270473
-0.024265831 -0.027747771 0.024432948
-0.014755676 -0.027707662 0.024675911
-0.0049901679 -0.027462618 0.024791032
0.0049027316 -0.027525034 0.024966203
0.014849443 -0.027705835 0.024448739
0.024515105 -0.027224276 0.024824006
0.035501126 -0.026051637 0.025250424
0.041956052 -0.022251625 0.024453918
-0.05076706 -0.01134374 0.024326369
-0.046027813 -0.015588426 0.024944376
0.0460838 -0.015530426 0.025332509
0.051122379 -0.011510095 0.023683082
-0.053267103 -0.0045481496 0.025314165
-0.049123153 -0.008646586 0.025539398
0.049123187 -0.0087434612 0.026253477
0.053673286 -0.0045924969 0.024939887
-0.060837977 0.0081379842 0.024361933
-0.056844808 0.0039063692 0.025175322
0.056939315 0.0042900168 0.025229869
0.060876589 0.0072426549 0.02465011
-0.062563077 0.016027683 0.024984168
-0.059088171 0.013334787 0.02563766
0.059062619 0.012736331 0.025884224
0.062572829 0.015723644 0.024863513
-0.064601921 0.025283732 0.024926506
0.064355664 0.024710542 0.024814412
-0.066045508 0.032845579 0.025034897
0.06644161 0.032346543 0.024853854
-0.024368525 -0.030937564 0.032151554
-0.015145754 -0.031136321 0.032701083
-0.0049281288 -0.030834299 0.033435289
0.0052058874 -0.030906513 0.0337433
0.015128758 -0.030926539 0.033364259
0.024080135 -0.030856291 0.032451499
0.030396979 -0.030262968 0.030536931
-0.041123681 -0.021269828 0.033316169
-0.03464853 -0.024282902 0.034523647
-0.025399186 -0.026075982 0.035879787
-0.015166865 -0.026789213 0.036110431
-0.0049185404 -0.026803495 0.036190294
0.0046390728 -0.026864257 0.035430882
0.01541358 -0.02671236 0.036121331
0.025207948 -0.026473923 0.03596336
0.0346363 -0.024309725 0.034982659
0.041064829 -0.02168797 0.033394843
-0.050352152 -0.010252457 0.031135578
-0.044718161 -0.014839583 0.034905482
-0.03724096 -0.018692646 0.037357241
0.037989162 -0.018661523 0.037618607
0.044542521 -0.01484006 0.034964032
0.050297353 -0.010379131 0.031865887
-0.052236438 -0.0038460293 0.034496188
-0.048164707 -0.0070180306 0.03649991
0.048164152 -0.007053847 0.036017321
0.052406505 -0.003962745 0.034503173
-0.060220659 0.0094821732 0.03246424
-0.05577796 0.004505815 0.035154987
0.055812314 0.0046863761 0.035133258
0.060347471 0.0091291238 0.032438062
-0.061898168 0.01576029 0.03462676
-0.058051147 0.014271432 0.035159018
0.058104418 0.01463543 0.035656039
0.062009931 0.015246197 0.034903686
-0.063382961 0.025148708 0.034622476
-0.059657104 0.021197779 0.037766334
0.05961401 0.021410087 0.037636869
0.063232772 0.025217241 0.034698889
-0.064896397 0.032755066 0.034766734
0.065208711 0.032628473 0.035061315
-0.03295029 -0.021522269 0.041919384
-0.024232375 -0.022603171 0.042515308
-0.014381355 -0.023314545 0.04299086
-0.0048176995 -0.023388786 0.04381052
0.0049942969 -0.023388691 0.043622684
0.01467859 -0.023034068 0.043421909
0.024618918 -0.022973331 0.04275158
0.033641633 -0.021816138 0.042049188
-0.042867109 -0.012822366 0.042671878
-0.035144441 -0.014921189 0.044891939
-0.025377121 -0.015900787 0.045855284
-0.015040242 -0.016332205 0.047124598
-0.0049980362 -0.016723514 0.047474626
0.0050241812 -0.016611813 0.047693383
0.015311702 -0.015973968 0.047524069
0.025100749 -0.015856706 0.046717271
0.035199102 -0.015609903 0.04514458
0.042857982 -0.012896039 0.043766774
-0.051658034 -0.0025168511 0.043066557
-0.045581028 -0.0053213784 0.045387678
-0.035845749 -0.0068472959 0.048058957
-0.026657484 -0.0086818067 0.049008582
-0.019801162 -0.0092623699 0.049941555
0.027870454 -0.0090016806 0.049575225
0.03563568 -0.007777229 0.048528731
0.045869771 -0.0056274515 0.04546316
0.051769964 -0.0023094087 0.043597359
-0.053927518 0.0053394497 0.044724081
-0.047242992 0.002859473 0.048085511
0.048407204 0.0023057428 0.047361325
0.053793829 0.0051986026 0.044791106
-0.060975533 0.01715515 0.043436058
-0.056850858 0.014414944 0.0451442
0.056304093 0.014401814 0.045799293
0.060977656 0.016905665 0.043211021
-0.062664554 0.025624612 0.044687361
-0.058490731 0.024332341 0.046075698
0.058440454 0.024409767 0.045642808
0.062709846 0.025634874 0.044877894
-0.063337788 0.032941051 0.045329217
-0.05947838 0.031011311 0.048511669
0.059311591 0.030929016 0.048515923
0.063277431 0.032534387 0.044811781
-0.032910813 -0.010682331 0.050605025
-0.024276409 -0.012301865 0.051496912
-0.014795369 -0.01285547 0.052397691
-0.0052414704 -0.013539477 0.052305926
0.0047087418 -0.013704312 0.052403208
0.014476635 -0.013127116 0.052314155
0.024808522 -0.012728707 0.051947787
0.03433599 -0.011076416 0.05106153
-0.043269362 -0.0031309738 0.051802848
-0.03468721 -0.004147619 0.052927777
-0.024701862 -0.0046785539 0.054178353
-0.014744575 -0.0052824914 0.054984767
-0.0050842217 -0.0054815998 0.055800226
0.0050456715 -0.0055588661 0.055538643
0.01518019 -0.0055693598 0.055309504
0.024901634 -0.004718842 0.054674845
0.034736909 -0.004394643 0.053370036
0.043541316 -0.0030082189 0.052270863
-0.052515954 0.0069276863 0.05234718
-0.044572685 0.0051847873 0.054098174
-0.035223909 0.0043701748 0.055980779
-0.025203755 0.0040674559 0.056902044
-0.015128863 0.0049328897 0.057625633
-0.0053960197 0.004669928 0.058262259
0.004823457 0.0042696591 0.058296382
0.015245379 0.004834862 0.058053996
0.025243327 0.0045372848 0.057523765
0.03536633 0.0040862416 0.056416705
0.045283943 0.0051953602 0.054722469
0.052232508 0.0067256228 0.052374255
-0.053596336 0.015816286 0.053967867
-0.045786288 0.014192648 0.056221537
-0.034701914 0.014814677 0.058083743
-0.025980074 0.012502846 0.05895716
-0.01799776 0.011038139 0.059617873
0.018462537 0.010169052 0.059870452
0.026333315 0.011309111 0.059379924
0.035730276 0.013878787 0.058757752
0.045606021 0.014614527 0.056994237
0.053865749 0.015314608 0.054424912
-0.061165143 0.026720608 0.052098576
-0.05536421 0.024605157 0.05524398
-0.045289949 0.024472445 0.058336902
-0.037896261 0.022010999 0.059609983
0.04664531 0.023490179 0.059041075
0.055420864 0.024719266 0.055409145
0.061259687 0.026976198 0.052573081
-0.061827984 0.032924999 0.053694211
-0.05585403 0.032868575 0.056632813
-0.047801927 0.031588428 0.059504591
0.056613676 0.032217637 0.056439873
0.061987158 0.033036198 0.053983435
-0.011236575 -0.00036752049 0.060200546
-0.00502196 -0.00072309119 0.060409471
0.0050433995 -0.00085536839 0.060533509
0.013705608 -0.00056825037 0.060263831
-0.033484761 0.008219122 0.060672753
-0.024062678 0.0061502024 0.061491281
-0.01460562 0.0053539891 0.062420584
-0.0052073952 0.0056080064 0.06278374
0.0052073458 0.0058455598 0.062666401
0.01466545 0.0051887389 0.062485103
0.024843413 0.0055254111 0.061796129
0.033785589 0.0075099058 0.061244946
0.041649017 0.0091227209 0.060230203
-0.043766469 0.016474821 0.061430648
-0.034860428 0.015315062 0.062925152
-0.024713172 0.015690932 0.063569352
-0.01471237 0.015515289 0.064137094
-0.0051371027 0.014815579 0.064332493
0.0050943843 0.014710517 0.064206101
0.015263208 0.015177493 0.064161457
0.024519678 0.015303006 0.063607119
0.035005502 0.015533057 0.06332805
0.044415172 0.0157452 0.06202868
0.050846025 0.018880872 0.06069107
-0.052134812 0.026390966 0.061532747
-0.044988263 0.024994705 0.06317728
-0.034757178 0.025042977 0.06392812
-0.024831273 0.024784504 0.065094143
-0.015092813 0.0247763 0.065980837
-0.0049813557 0.024321595 0.066392682
0.0051181447 0.024349749 0.066052303
0.015235903 0.024518516 0.066250108
0.024649339 0.024993096 0.065743312
0.035047196 0.025060778 0.064727224
0.044395797 0.02552841 0.063687578
0.053042088 0.025747878 0.061972857
-0.053403493 0.033028159 0.062306479
-0.044635009 0.033079516 0.063499317
-0.035289511 0.032656003 0.065087564
-0.02524692 0.032687411 0.066709034
-0.015562159 0.032660596 0.067243591
-0.0048392159 0.03298853 0.06727168
0.0053086001 0.033025783 0.067378126
0.01549951 0.032691404 0.067027539
0.025516102 0.032548893 0.06695462
0.034895252 0.032634914 0.066264458
0.045107368 0.032790698 0.064944766
0.054035634 0.032996234 0.062543377
-0.011677054 0.029364428 0.0701335
-0.003961802 0.02846008 0.070497952
0.0050359606 0.027480638 0.070526049
0.013509273 0.028401764 0.070224039
-0.013952106 0.032870475 0.070487805
-0.0048909364 0.032612726 0.071025729
0.0050663077 0.032331116 0.071316652
0.015011306 0.03250948 0.07085713
0.022738406 0.033019841 0.070372835
