# .PCD v0.7 - Point Cloud Data file format
VERSION 0.7
FIELDS x y z
SIZE 4 4 4
TYPE F F F
COUNT 1 1 1
WIDTH 1204
HEIGHT 1
VIEWPOINT 0 0 0 1 0 0 0
POINTS 1204
DATA ascii
-0.070394561 -0.11161777 -0.030593308
-0.065025665 -0.11313381 -0.031685662
-0.054669671 -0.11317047 -0.032526545
-0.044800796 -0.11367749 -0.032579914
-0.034955252 -0.11367999 -0.032807574
-0.024943875 -0.11395571 -0.032694239
-0.014845531 -0.11363261 -0.03313401
-0.0051708687 -0.11437511 -0.032865129
0.0048893075 -0.11356136 -0.033084977
0.014950037 -0.11425548 -0.032720525
0.025020339 -0.11443387 -0.032322165
0.035345994 -0.11392302 -0.032135773
0.044878013 -0.11506999 -0.031526405
0.054655641 -0.11442451 -0.031197816
0.065302722 -0.1134023 -0.030562716
0.07036081 -0.11137548 -0.030110035
-0.070547126 -0.10440196 -0.030896259
-0.065156996 -0.10480468 -0.0323327
-0.054905396 -0.10482764 -0.033748899
-0.045620628 -0.10508716 -0.034423839
-0.034712188 -0.1048703 -0.034786303
-0.024844225 -0.1051673 -0.034815181
-0.015213635 -0.10538539 -0.034717109
-0.0046548857 -0.10485744 -0.034586933
0.0044347886 -0.10537571 -0.034405675
0.015210135 -0.10495631 -0.034185015
0.024203386 -0.10508855 -0.033769224
0.035329405 -0.10489957 -0.033048406
0.044777874 -0.10459077 -0.032447472
0.054699663 -0.10508831 -0.031730466
0.064959571 -0.10466653 -0.030764254
0.07077755 -0.10414588 -0.030190535
-0.070682839 -0.095139846 -0.031176448
-0.06523525 -0.095529094 -0.032671358
-0.054769438 -0.095651656 -0.033890031
-0.044718605 -0.095321558 -0.034613702
-0.034794673 -0.09542831 -0.034907054
-0.024750387 -0.095146917 -0.035062164
-0.014732596 -0.094678104 -0.035160229
-0.0048786281 -0.094735801 -0.035011914
0.0047240462 -0.095087111 -0.034759928
0.015127413 -0.094535545 -0.034439348
0.024716953 -0.094865158 -0.033856671
0.034565885 -0.095119148 -0.033233989
0.044993214 -0.095070541 -0.032555897
0.055107273 -0.094922423 -0.031771749
0.065229535 -0.095164537 -0.030837139
0.071360029 -0.09436816 -0.030218583
-0.071000487 -0.084474534 -0.03123655
-0.065183736 -0.085066497 -0.032918025
-0.054806072 -0.085064568 -0.03397391
-0.045377191 -0.084783107 -0.034721944
-0.035044726 -0.084894359 -0.034966126
-0.024875257 -0.08513996 -0.035125148
-0.014482956 -0.084485911 -0.035232488
-0.0048430758 -0.084992424 -0.035099834
0.005051407 -0.085333176 -0.034923349
0.014918646 -0.084553801 -0.034599643
0.024804499 -0.084723242 -0.034007639
0.035080079 -0.085130014 -0.033353135
0.044579502 -0.084975012 -0.032674186
0.05505769 -0.084928155 -0.031845231
0.06484133 -0.0851577 -0.030971024
0.071118236 -0.084560394 -0.030352997
-0.070908427 -0.074751094 -0.031558972
-0.065063976 -0.074548945 -0.032974865
-0.054530662 -0.075004987 -0.034068368
-0.044906087 -0.075311407 -0.034826543
-0.035601985 -0.075505927 -0.0350217
-0.02504006 -0.07484147 -0.035204493
-0.015047639 -0.075347237 -0.035232022
-0.0051840972 -0.074577399 -0.035073791
0.0050969743 -0.074725315 -0.034900796
0.015135463 -0.074446358 -0.034604207
0.024858668 -0.074599333 -0.034121156
0.035716105 -0.075285442 -0.033413325
0.045145717 -0.074865244 -0.032710988
0.054771792 -0.074712954 -0.031940233
0.064793535 -0.074722335 -0.031053055
0.070942827 -0.075055808 -0.030451262
-0.070985191 -0.06592714 -0.031235768
-0.065319911 -0.06472528 -0.032927163
-0.055024061 -0.064929776 -0.033974793
-0.045208182 -0.065023921 -0.034732267
-0.035181955 -0.064575329 -0.034976363
-0.025135554 -0.06492614 -0.035187773
-0.015306828 -0.065302379 -0.03520539
-0.0049987761 -0.064695686 -0.035037827
0.004746729 -0.064360037 -0.03487796
0.014969533 -0.06540186 -0.034592975
0.024895515 -0.065321006 -0.034086026
0.034910042 -0.064889871 -0.033504516
0.045448393 -0.065122649 -0.032764655
0.055267639 -0.064642474 -0.031963412
0.065063946 -0.064935207 -0.031065417
0.071208924 -0.065357596 -0.03037381
-0.070571356 -0.055785481 -0.031244511
-0.065385841 -0.054971378 -0.032827612
-0.054474954 -0.055126902 -0.033831615
-0.044931196 -0.054972168 -0.034547918
-0.034742266 -0.054957211 -0.034825228
-0.025054893 -0.054487079 -0.035027701
-0.015018102 -0.055135522 -0.035146613
-0.0051774704 -0.055301957 -0.035004772
0.0048078871 -0.054998703 -0.034840986
0.014723775 -0.054717783 -0.0345494
0.025144065 -0.055015322 -0.033968527
0.03492203 -0.054694299 -0.033410847
0.045018148 -0.054910976 -0.032827191
0.055138249 -0.055211678 -0.031993557
0.065195434 -0.055424914 -0.030989934
0.070748866 -0.054701485 -0.030407755
-0.070771582 -0.044806436 -0.030580806
-0.064784527 -0.045165617 -0.032686867
-0.054631531 -0.044649977 -0.033611339
-0.045433335 -0.045008451 -0.034340646
-0.035003603 -0.044839587 -0.034668051
-0.025080681 -0.044693261 -0.034885306
-0.015163491 -0.044567369 -0.035054591
-0.005024753 -0.044807635 -0.034933854
0.0049831849 -0.045369092 -0.034750137
0.014370963 -0.044349737 -0.034471925
0.025293153 -0.044809066 -0.033869788
0.035096731 -0.045043886 -0.033318598
0.045181964 -0.044593666 -0.032743573
0.054747697 -0.045559682 -0.031967152
0.064789236 -0.045440663 -0.030958038
0.070914663 -0.044098523 -0.030287843
-0.070490405 -0.035951383 -0.030465806
-0.065539129 -0.035420489 -0.032383714
-0.054825254 -0.034968548 -0.033452269
-0.044977158 -0.035350125 -0.034254264
-0.034879476 -0.035108916 -0.034618855
-0.025051309 -0.035138469 -0.034847263
-0.014704034 -0.035302419 -0.034965917
-0.0050576194 -0.035122618 -0.034810163
0.0049701189 -0.035250906 -0.034633193
0.015695706 -0.034513053 -0.034314536
0.024929168 -0.035180293 -0.033819377
0.03504169 -0.034473363 -0.033267677
0.045541618 -0.035634521 -0.032640044
0.055127475 -0.035097636 -0.031819388
0.064604923 -0.034624752 -0.030928403
0.070792846 -0.034442954 -0.030276882
-0.070332102 -0.025402242 -0.030411767
-0.065138593 -0.025212882 -0.032308217
-0.054742575 -0.02528668 -0.033325605
-0.045273092 -0.024925064 -0.034099914
-0.034747843 -0.02455711 -0.034547161
-0.024662672 -0.025188908 -0.034826942
-0.014770669 -0.02492043 -0.034831129
-0.0048880801 -0.024799215 -0.034672711
0.0049625672 -0.024382923 -0.034516484
0.014562464 -0.025067154 -0.03428103
0.024662979 -0.025353806 -0.033785667
0.03495561 -0.02504898 -0.033232316
0.045247015 -0.0250545 -0.032540061
0.055034596 -0.02507236 -0.03168999
0.064408384 -0.0251242 -0.030869273
0.071017891 -0.024467401 -0.030225385
-0.070262246 -0.014933604 -0.030563803
-0.064888388 -0.015122864 -0.032243151
-0.054796707 -0.015203652 -0.03318806
-0.045172367 -0.015122508 -0.033990603
-0.035140961 -0.014817334 -0.034453616
-0.025257424 -0.015012536 -0.03472349
-0.015287876 -0.015153533 -0.03475555
-0.0053123739 -0.014867576 -0.034624014
0.0057602958 -0.014923763 -0.034452129
0.015161581 -0.014950722 -0.034110185
0.024713257 -0.014826618 -0.033667453
0.034583572 -0.014706045 -0.03319281
0.045853477 -0.015413476 -0.032363351
0.055258907 -0.014866044 -0.031547371
0.064813986 -0.015135046 -0.030726541
0.07087905 -0.014870351 -0.030166753
-0.070324153 -0.0063795019 -0.030400114
-0.065327682 -0.0049078893 -0.032139573
-0.055231713 -0.0050588972 -0.03304458
-0.044727422 -0.0055718133 -0.033926833
-0.034960117 -0.0052682925 -0.03436752
-0.024736665 -0.0049423259 -0.034634061
-0.015643146 -0.0048988708 -0.034645766
-0.0047951187 -0.0048331055 -0.03454278
0.0052621337 -0.0042941766 -0.034374259
0.01481321 -0.0050086775 -0.033990715
0.025092585 -0.0047265906 -0.03354324
0.034873355 -0.0054171011 -0.03309055
0.045496684 -0.005882421 -0.032345071
0.055214167 -0.0051172082 -0.031530853
0.064550094 -0.0054594744 -0.030659445
0.070386834 -0.0073854104 -0.030044481
-0.070205711 0.0022274808 -0.030257527
-0.065357201 0.0048415223 -0.031929169
-0.054961421 0.0044138138 -0.032992102
-0.045310378 0.0051164445 -0.033810541
-0.035014685 0.0051793326 -0.034247663
-0.025137519 0.0051421933 -0.034516752
-0.01504091 0.0048930882 -0.034528676
-0.0055231475 0.0048384047 -0.034442123
0.0049971347 0.0054375143 -0.034300476
0.015448982 0.0051541044 -0.033917606
0.025400238 0.0048375558 -0.033505756
0.034564868 0.0049340092 -0.033002496
0.045203898 0.0051848837 -0.0322452
0.055032238 0.0049631074 -0.031500842
0.064123549 0.0051425663 -0.030517168
-0.065157287 0.014916261 -0.031905849
-0.055271059 0.015368754 -0.0329368
-0.044892684 0.015104311 -0.033752657
-0.034831464 0.014843808 -0.034126211
-0.025285548 0.015384241 -0.034401562
-0.015637835 0.015166055 -0.034416929
-0.0051071974 0.014933667 -0.034322836
0.0051820357 0.014917186 -0.034203123
0.015021836 0.014766169 -0.033882532
0.025548266 0.01509281 -0.03345402
0.034617845 0.015042002 -0.032888271
0.044731598 0.015204743 -0.032206174
0.054531887 0.015079752 -0.031420004
0.064019769 0.014696169 -0.030470785
-0.065168999 0.025083158 -0.031842392
-0.055052333 0.025504282 -0.032944039
-0.045000039 0.024996208 -0.033638153
-0.035099979 0.025246486 -0.033961188
-0.025014255 0.025390862 -0.034260716
-0.015098917 0.024946241 -0.034304045
-0.0052069626 0.024925519 -0.034210078
0.0047650472 0.025227021 -0.034109022
0.014985557 0.024836639 -0.033806968
0.024504678 0.024813591 -0.033399384
0.034764241 0.024943113 -0.032849085
0.044977594 0.025044302 -0.032144494
0.054884959 0.025394278 -0.031212116
0.063537784 0.024384059 -0.030359773
-0.064977609 0.035098113 -0.031864118
-0.054604087 0.03542285 -0.032979928
-0.045031507 0.03497915 -0.033555631
-0.035321478 0.034998663 -0.033812325
-0.024843171 0.035272878 -0.034097172
-0.014558366 0.035511632 -0.034189925
-0.0053210282 0.034864377 -0.034101713
0.0044143521 0.034559362 -0.033999741
0.015005429 0.034981154 -0.033686969
0.024785297 0.034554593 -0.033247676
0.0344579 0.035271436 -0.032788787
0.045045748 0.03521543 -0.032024194
0.05469504 0.035695389 -0.031050161
0.062872134 0.034463108 -0.030244814
-0.064490959 0.044928793 -0.032055289
-0.055286333 0.044941928 -0.032918178
-0.044960305 0.044910133 -0.03350709
-0.035151012 0.044748597 -0.03375734
-0.024706101 0.045103602 -0.034003008
-0.015686912 0.045010183 -0.034049317
-0.0040438478 0.045072678 -0.033889744
0.0050546713 0.045215677 -0.033775531
0.015349367 0.044647798 -0.033536587
0.025359077 0.045075133 -0.033080719
0.03541898 0.044909973 -0.032596331
0.045000989 0.044793565 -0.03189522
0.055198073 0.0448341 -0.030889662
0.061938904 0.045020312 -0.030213842
-0.064191028 0.054728031 -0.032058787
-0.055240434 0.05506961 -0.032978285
-0.045105468 0.055490524 -0.033436842
-0.034640342 0.054981004 -0.033689324
-0.024769111 0.055019565 -0.033873755
-0.01515398 0.054793783 -0.033875082
-0.0053630718 0.054396246 -0.033748962
0.0050071334 0.055418272 -0.033572126
0.014232261 0.055120666 -0.033412367
0.025256723 0.054583233 -0.032924756
0.035307448 0.054330487 -0.032373227
0.045155488 0.055332206 -0.031701569
0.055046402 0.054670896 -0.030792749
0.061262477 0.055479407 -0.030179286
-0.064850606 0.064688697 -0.032023393
-0.054941256 0.064802766 -0.032974377
-0.044644516 0.064855553 -0.03334571
-0.035371292 0.064736806 -0.033582307
-0.02513996 0.064322874 -0.033710502
-0.01544538 0.065299183 -0.03368862
-0.005078604 0.064853325 -0.033578947
0.0050742025 0.064911403 -0.033391781
0.014613087 0.06509462 -0.033161502
0.025031861 0.064950436 -0.032667447
0.035375759 0.064137705 -0.032121614
0.045219474 0.06518878 -0.031498894
0.055197272 0.065349616 -0.030608617
0.060933873 0.064429097 -0.030082738
-0.064232416 0.074644022 -0.0321397
-0.054832872 0.075085372 -0.032876883
-0.044692632 0.075377353 -0.033190437
-0.034856133 0.075130045 -0.033431262
-0.024884632 0.07480441 -0.033458356
-0.014964098 0.07432805 -0.033447884
-0.0051911208 0.074783027 -0.033305358
0.0045429356 0.074865699 -0.033104364
0.015382879 0.075058281 -0.032786008
0.025625734 0.074945666 -0.032286815
0.034363933 0.075042255 -0.031842556
0.045166072 0.075170852 -0.031268492
0.054753397 0.074590065 -0.030468494
0.060339153 0.071440071 -0.030024037
-0.0645606 0.085438646 -0.031947311
-0.05502747 0.085054338 -0.032705955
-0.045069452 0.084762588 -0.032969326
-0.034904551 0.08534582 -0.033140942
-0.025307106 0.085266896 -0.033115111
-0.014799594 0.085053369 -0.033075485
-0.0048781727 0.084942169 -0.032932494
0.0051262444 0.084477752 -0.032754634
0.01479244 0.084750958 -0.032448348
0.024718301 0.085157633 -0.031950094
0.034413569 0.084884077 -0.031460732
0.04489854 0.084796362 -0.03081236
0.052580796 0.084294938 -0.030257391
-0.064697117 0.095061705 -0.031361636
-0.054600462 0.095130794 -0.032154817
-0.044918425 0.094539106 -0.032601375
-0.034927376 0.094653882 -0.032811761
-0.025138324 0.094996035 -0.032720994
-0.0152557 0.094658285 -0.032665562
-0.0050269482 0.095023118 -0.032358214
0.0052365339 0.094989628 -0.031995069
0.015056117 0.09475635 -0.031729408
0.025487935 0.094896108 -0.031302441
0.035381559 0.095480286 -0.030746674
0.043547463 0.093720831 -0.030345445
0.050623775 0.090625256 -0.030033607
-0.063379809 0.10403331 -0.031006575
-0.054971088 0.10458156 -0.031284645
-0.045047101 0.10453973 -0.031542756
-0.03538055 0.10440343 -0.031729233
-0.025472494 0.10441003 -0.03160961
-0.014893343 0.10384189 -0.031572577
-0.0048821513 0.1040515 -0.031319637
0.0051561841 0.10363924 -0.031073434
0.013945636 0.10305926 -0.03068077
0.024329355 0.10157698 -0.030347392
0.032803811 0.10057053 -0.030152503
-0.071986854 -0.11291564 -0.024700645
-0.064659581 -0.1152959 -0.024969645
-0.055409085 -0.11590924 -0.025088986
-0.044966135 -0.1158869 -0.025073081
-0.035021394 -0.11621298 -0.025330922
-0.024726963 -0.11678973 -0.02500858
-0.015003392 -0.11706305 -0.025161892
-0.0051131155 -0.11726212 -0.024995146
0.004981345 -0.11731748 -0.025252782
0.015038528 -0.11736762 -0.025692688
0.024386732 -0.11752089 -0.024671301
0.035239425 -0.1178735 -0.024926588
0.044940986 -0.11823933 -0.024566308
0.055309255 -0.11821444 -0.025087912
0.065667853 -0.11802562 -0.024877904
0.071758598 -0.11475725 -0.02435527
-0.072501801 -0.10489184 -0.025440134
0.07281515 -0.10471526 -0.02516575
-0.072542906 -0.0954118 -0.025014088
0.073505282 -0.094311781 -0.025233217
-0.072361074 -0.085166968 -0.025594933
0.073865913 -0.084853604 -0.02475765
-0.072343037 -0.075158037 -0.024687227
0.073954359 -0.075450674 -0.025313543
-0.072084688 -0.064667657 -0.024695866
0.074145578 -0.06467735 -0.025181407
-0.071815729 -0.0550007 -0.024870874
0.074203499 -0.054848175 -0.025323803
-0.071568862 -0.044892345 -0.024890058
0.073910862 -0.044898368 -0.025418846
-0.071268938 -0.034845598 -0.025179088
0.074027009 -0.034938335 -0.025440607
-0.071004085 -0.024901943 -0.025362261
0.074245751 -0.025085062 -0.025223276
-0.070940197 -0.01517985 -0.02495168
0.074500635 -0.014772996 -0.025614448
-0.070696436 -0.0054519926 -0.025308533
0.069371238 -0.00085675373 -0.029999223
0.074351437 -0.0049088872 -0.026085503
-0.070554093 0.0044084368 -0.024840482
0.069105893 0.0050999527 -0.029923135
0.074191362 0.0050655724 -0.026504589
-0.070308827 0.014773294 -0.024966467
-0.069954127 0.017054461 -0.028886123
0.069113888 0.015526559 -0.029920693
0.074390806 0.014791389 -0.026325237
-0.070242897 0.025248056 -0.022805665
-0.069784544 0.026019452 -0.028294344
0.068590313 0.024743814 -0.029843515
0.074595354 0.024765844 -0.026451373
-0.070150845 0.034643356 -0.021679889
-0.069729194 0.03530867 -0.026885256
0.06773518 0.034963597 -0.02974524
0.074712165 0.035069428 -0.026142359
-0.070062131 0.043095283 -0.020729197
-0.069607399 0.045615062 -0.026085945
0.066658117 0.044288259 -0.029748686
0.07495717 0.044937354 -0.025795272
-0.06952887 0.055023644 -0.024735102
0.066436805 0.055167399 -0.029668495
0.074506797 0.054955907 -0.026371678
-0.069309376 0.064806931 -0.024962297
0.065919921 0.064723551 -0.02960577
0.075245857 0.064970598 -0.025508534
-0.069068469 0.075034045 -0.024970507
0.059014238 0.078141272 -0.029907349
0.065704398 0.074776322 -0.029364301
0.075054243 0.074484415 -0.025598142
-0.06868501 0.08511328 -0.024806088
0.057269368 0.085781299 -0.029743701
0.064899206 0.084810019 -0.029003194
0.074318781 0.085312322 -0.025815243
-0.068031445 0.095248714 -0.025012845
0.047788963 0.098006144 -0.029765332
0.055228323 0.094836958 -0.029430011
0.064985521 0.094667107 -0.02855183
0.074384421 0.094898969 -0.025644373
-0.065503918 0.10631602 -0.024907039
-0.054851316 0.10927666 -0.026477715
-0.044037234 0.10949399 -0.027005268
-0.035128552 0.10925685 -0.026363313
-0.024868263 0.10913193 -0.02630372
-0.015357056 0.10911765 -0.025507824
-0.0054434678 0.1087803 -0.025656668
0.0043180706 0.10869586 -0.025472969
0.015386277 0.10847949 -0.025203958
0.025012467 0.10767315 -0.026203889
0.03520878 0.10636239 -0.026998339
0.045036994 0.10599989 -0.026340501
0.055085611 0.10544867 -0.026243199
0.065131515 0.1049422 -0.025930468
0.073728621 0.10324726 -0.02475285
-0.062348835 0.1102064 -0.020021833
-0.055032082 0.1103075 -0.021723848
-0.043886736 0.11026963 -0.021786818
-0.035248909 0.1101929 -0.021426087
-0.024343271 0.11014938 -0.020818235
-0.017349122 0.11006517 -0.020572314
-0.072586015 -0.1137029 -0.014515633
-0.064979307 -0.11598551 -0.015086604
-0.054690428 -0.11648531 -0.015020198
-0.04515709 -0.11662269 -0.015415958
-0.035049252 -0.11700636 -0.014981698
-0.02455188 -0.1172723 -0.014227001
-0.015178713 -0.11732145 -0.014877354
-0.0054516522 -0.11777347 -0.014515843
0.0050744084 -0.11797097 -0.015243725
0.014995211 -0.1180753 -0.014853902
0.024466103 -0.11809633 -0.015677992
0.034581855 -0.11839165 -0.015451434
0.044576567 -0.11870205 -0.014849348
0.05528 -0.11879329 -0.01489823
0.065387182 -0.11875155 -0.014839766
0.072188184 -0.11531366 -0.014850843
-0.073623285 -0.10502917 -0.015084729
0.073267803 -0.10553489 -0.015080987
-0.073685989 -0.095219798 -0.014743168
0.073902339 -0.095330492 -0.014628718
-0.073561653 -0.084756628 -0.01539294
0.074160583 -0.085275941 -0.015541631
-0.073402204 -0.074946031 -0.015155463
0.074546941 -0.074675098 -0.014634004
-0.073141195 -0.065536581 -0.014988326
0.07472863 -0.06536267 -0.014818567
-0.072786212 -0.054742031 -0.015354561
0.074962378 -0.0553842 -0.014506917
-0.072490059 -0.044561367 -0.015749974
0.075147495 -0.044863563 -0.014767271
-0.072227351 -0.034888282 -0.015184393
0.075146899 -0.035142068 -0.015058238
-0.071886167 -0.025432169 -0.0157024
0.075422101 -0.024686761 -0.015262231
-0.07166484 -0.015555689 -0.015058962
0.075618736 -0.014972067 -0.01491353
-0.071270809 -0.0053074635 -0.014346281
0.075776994 -0.0050502736 -0.01487212
-0.071139477 0.0050801001 -0.015086778
0.07596802 0.0049747694 -0.0145611
-0.071045458 0.015620557 -0.014709622
0.075949706 0.015193866 -0.014452086
-0.070853233 0.024776144 -0.014848659
0.076099224 0.025194066 -0.014372731
-0.07063631 0.034526207 -0.015266344
0.076167084 0.034815654 -0.014315143
-0.070430636 0.044468995 -0.015467335
0.076241829 0.045340642 -0.015273633
-0.070355296 0.054823905 -0.013814335
-0.069930859 0.056195945 -0.019117689
0.076418579 0.055565946 -0.014599571
-0.070195243 0.064233728 -0.012611899
-0.069842055 0.065787561 -0.01742324
0.076562971 0.064719915 -0.015247311
-0.070006594 0.071922481 -0.010673811
-0.069663562 0.074972436 -0.014943524
0.076385796 0.0753657 -0.015417564
-0.069257364 0.084803738 -0.015336441
0.076089844 0.084995173 -0.015146768
-0.068696983 0.095323764 -0.015414556
0.075794153 0.094846219 -0.015380439
-0.067560777 0.10550583 -0.015571811
-0.0016392613 0.10991746 -0.01949471
0.0045527495 0.10988283 -0.01912733
0.0164255 0.10983044 -0.018516988
0.025536003 0.10972279 -0.018380821
0.035566799 0.109636 -0.017610019
0.045586511 0.10949397 -0.015572051
0.055121835 0.10878062 -0.015170521
0.065328211 0.10794958 -0.014933114
0.074165329 0.1044415 -0.014384921
-0.062795781 0.1110206 -0.014262395
-0.055203095 0.11153041 -0.014558512
-0.045421448 0.11125661 -0.015606916
-0.035387296 0.11112297 -0.01543679
-0.025162838 0.111086 -0.014834058
-0.015105833 0.11096976 -0.014657945
-0.0048505738 0.11087129 -0.014140351
0.0054645953 0.1107459 -0.01373784
0.014702836 0.11055041 -0.01417853
0.025614398 0.1105801 -0.012979563
0.034412477 0.11045888 -0.012798919
0.042312231 0.11027271 -0.012132391
-0.073246345 -0.11379802 -0.0050756005
-0.064758122 -0.11651351 -0.0048551322
-0.055378228 -0.11694578 -0.0047351499
-0.045303728 -0.11730884 -0.0054085115
-0.035312641 -0.11753114 -0.0052268314
-0.025098827 -0.1175092 -0.0046576001
-0.014786146 -0.11756851 -0.0048890398
-0.0051572286 -0.1179941 -0.0055424492
0.004993605 -0.11830267 -0.0052048657
0.014383291 -0.11859157 -0.0048886798
0.024718598 -0.11876446 -0.0052277846
0.034881048 -0.11896335 -0.0052687619
0.045350675 -0.1191099 -0.0051758033
0.055004612 -0.119199 -0.0047146934
0.064866066 -0.11925052 -0.0050035859
0.072282158 -0.1151885 -0.0050244029
-0.07430958 -0.10451971 -0.0051627317
0.073462643 -0.10478804 -0.0043560192
-0.074327655 -0.094761409 -0.0056805322
0.073938273 -0.095604323 -0.0053470344
-0.074102797 -0.084905691 -0.0047094347
0.074166588 -0.08477889 -0.004239412
-0.073806264 -0.075337343 -0.0050480166
0.074525163 -0.075417943 -0.0050199144
-0.07349284 -0.064715303 -0.0045809867
0.074930042 -0.064916603 -0.0049090129
-0.073220357 -0.055327792 -0.0048583541
0.075175464 -0.055373248 -0.0048361076
-0.072953485 -0.045226716 -0.0048908843
0.075395927 -0.045283563 -0.0050991829
-0.072706014 -0.035100862 -0.0052512889
0.075567856 -0.03514814 -0.0047900588
-0.072484039 -0.025358394 -0.0049486086
0.07570044 -0.024977766 -0.0044082087
-0.072142065 -0.015110105 -0.0050149714
0.075848587 -0.015280527 -0.0048636645
-0.071732759 -0.0051451074 -0.0052349935
0.076003492 -0.0050037592 -0.0050071036
-0.07168939 0.0047917506 -0.0047822706
0.075953335 0.0048125889 -0.0049763205
-0.071509592 0.015699714 -0.0053111822
0.075975172 0.01507816 -0.0053267237
-0.071338303 0.02463215 -0.0049989903
0.076159358 0.024928015 -0.0053152279
-0.071162589 0.034718197 -0.00482642
0.076276273 0.035079662 -0.0052169729
-0.070930563 0.044847302 -0.0056292419
0.076390281 0.045229934 -0.0049513923
-0.070709594 0.05526014 -0.0053937654
0.07656692 0.054696571 -0.0047069918
-0.070434012 0.064907566 -0.0054996666
0.076709755 0.065150633 -0.0052116932
-0.070140176 0.074562728 -0.0044987905
-0.069918863 0.077218339 -0.0082947742
0.076470733 0.075425528 -0.0051644119
-0.070031121 0.080950491 -0.00039710058
-0.069737725 0.085092619 -0.005328435
0.076212049 0.084767506 -0.0048806206
-0.069364391 0.095004924 -0.0045573576
0.07596834 0.094850615 -0.0054146941
-0.068618454 0.10487348 -0.0050804755
0.049203314 0.10998436 -0.0099947136
0.057020161 0.10972068 -0.0071998313
0.065122642 0.10932674 -0.0054184319
0.074379325 0.10463597 -0.0047350368
-0.064050794 0.11192043 -0.0049267826
-0.055479061 0.11300837 -0.0050125369
-0.044836838 0.11291339 -0.0048877336
-0.034544881 0.11278679 -0.0045531788
-0.025199348 0.11230171 -0.0052082292
-0.015140811 0.11181374 -0.0052222423
-0.0046103396 0.11180969 -0.0048796702
0.0051688277 0.11175723 -0.005463026
0.014692808 0.11163788 -0.0052525117
0.025296643 0.11152951 -0.005094829
0.034711003 0.11145894 -0.004918478
0.044894908 0.11099393 -0.0050684689
0.053842187 0.1105842 -0.0032537619
0.063793659 0.11038002 -0.0013331878
-0.073109061 -0.11440384 0.0049077971
-0.064884506 -0.11659238 0.0055749263
-0.054905847 -0.11709118 0.0051095681
-0.044933856 -0.11755361 0.0047480143
-0.035056662 -0.11777321 0.0043449192
-0.025055544 -0.1177436 0.005010732
-0.014658893 -0.1177991 0.0046041342
-0.0047052335 -0.11815882 0.0056500863
0.0050366065 -0.11832231 0.0052317539
0.015083 -0.11867038 0.005717075
0.024751753 -0.1190108 0.0044093956
0.035515733 -0.11927094 0.0048441174
0.045194775 -0.11932411 0.0047124792
0.054984264 -0.11934286 0.0044475342
0.065276131 -0.11936679 0.0049146363
0.072316192 -0.11446238 0.005034314
-0.074227743 -0.10463742 0.0057074642
0.073072739 -0.10516017 0.0053736162
-0.074203424 -0.094852097 0.0049723973
0.073703662 -0.094117329 0.0049864389
-0.07415317 -0.084994704 0.0049885274
0.074122712 -0.084761761 0.0047849678
-0.073986851 -0.074702419 0.0057110982
0.074426249 -0.075286478 0.0045797694
-0.073710747 -0.064741701 0.0050182976
0.074535578 -0.065192528 0.005241185
-0.073452331 -0.055137508 0.0048040426
0.074852347 -0.05491722 0.0046171662
-0.073186472 -0.045030255 0.0048797354
0.075115472 -0.045200475 0.0047927853
-0.072955094 -0.03525193 0.0051462664
0.075295635 -0.034979403 0.0051417849
-0.072686553 -0.024576498 0.0044569867
0.075426623 -0.025200788 0.005444021
-0.072468348 -0.015034276 0.0050464161
0.075602062 -0.014632378 0.0051876013
-0.072170965 -0.0048611895 0.0044591632
0.075771347 -0.0053940709 0.0048290482
-0.071917206 0.0052495361 0.0041428525
0.075874038 0.0050554615 0.0049575609
-0.071614876 0.014824067 0.0048224502
0.07601095 0.014966973 0.0057451311
-0.071352944 0.024839688 0.004795508
0.076198831 0.025010819 0.0049692784
-0.071259923 0.034888562 0.0045027025
0.076365806 0.034979962 0.0051576993
-0.071119815 0.046122383 0.0048009655
0.076529168 0.044805028 0.0048452141
-0.070933007 0.054977395 0.0052913437
0.076738946 0.055071659 0.0053279269
-0.070642792 0.065000422 0.0050907163
0.076843664 0.064586066 0.0049893623
-0.070346214 0.075117819 0.0050801807
0.07663209 0.074755862 0.0050393315
-0.070133552 0.082905293 0.0065613608
-0.069886401 0.087612912 0.0038249912
0.07640814 0.084771566 0.0049208072
-0.069408178 0.094840162 0.0056384574
0.07612396 0.094970092 0.005172594
-0.068436101 0.10526731 0.0051707597
0.069016971 0.10982165 0.0056682043
0.07415276 0.10532575 0.005113455
-0.063298732 0.11196794 0.0047924872
-0.054996889 0.11289929 0.0050719702
-0.045061979 0.1129774 0.0051170136
-0.034758557 0.1128585 0.0047101108
-0.025041154 0.1126325 0.0045234906
-0.014945444 0.11229106 0.0046634874
-0.0053084167 0.11213994 0.0047413949
0.0047453335 0.11198281 0.0051361579
0.014789865 0.11182939 0.0049438612
0.025617173 0.11174127 0.0047857445
0.034806196 0.11166395 0.0045911283
0.04496308 0.11141884 0.0051827398
0.055336662 0.11115263 0.0047452841
0.063956074 0.11066426 0.0048827389
-0.073153749 -0.11387184 0.015250908
-0.065659694 -0.11651143 0.014979734
-0.055095576 -0.11703754 0.015013539
-0.04449274 -0.1174219 0.015181483
-0.035252079 -0.11772361 0.015031355
-0.025709167 -0.11796741 0.015772039
-0.014980118 -0.11802668 0.015069687
-0.0054573924 -0.1182248 0.015084691
0.0050740805 -0.11834317 0.015069272
0.01524976 -0.11868422 0.01483352
0.025012346 -0.11898989 0.014867243
0.0349214 -0.11919893 0.014779131
0.045361124 -0.11933973 0.014876023
0.055204604 -0.11940812 0.014965325
0.065655515 -0.11942766 0.014888589
0.071638726 -0.11473823 0.015278447
-0.074036896 -0.10471629 0.015257878
0.0724243 -0.10525266 0.014127138
-0.073988773 -0.095037326 0.015125695
0.072872274 -0.095305413 0.015466874
-0.073928826 -0.084704742 0.014704776
0.073407806 -0.085118674 0.014838777
-0.073767655 -0.075576261 0.014750889
0.073652796 -0.074772544 0.014947849
-0.073531352 -0.064647265 0.014818225
0.073760524 -0.064989135 0.014518678
-0.07332401 -0.055237073 0.014994957
0.074019559 -0.05531108 0.014912743
-0.073107921 -0.044766214 0.014960418
0.07440991 -0.044879843 0.01488542
-0.072916254 -0.035466541 0.014988066
0.074729271 -0.034923747 0.014833795
-0.072650962 -0.025239045 0.014719734
0.07485646 -0.02520458 0.015374906
-0.07233385 -0.01466456 0.015196428
0.074988075 -0.014918988 0.015288673
-0.07210964 -0.0047915955 0.014642113
0.07512112 -0.0046525798 0.015187377
-0.071916088 0.0048334803 0.015507472
0.075314589 0.0045582158 0.015218679
-0.071663946 0.014912386 0.014618918
0.075548075 0.014819296 0.015167513
-0.071350731 0.025365641 0.015242519
0.075672172 0.02543365 0.015725214
-0.071234554 0.034557 0.015111582
0.075900935 0.034834124 0.015002929
-0.071122348 0.044608738 0.015547682
0.076175541 0.044632152 0.014830075
-0.070878595 0.05459623 0.015199658
0.076418996 0.05481362 0.014502091
-0.070585378 0.064877972 0.014918633
0.076578878 0.064660549 0.015140681
-0.070274442 0.074692063 0.015190084
-0.069966763 0.078392468 0.019550737
0.076531939 0.074882433 0.01503305
-0.07009691 0.082527332 0.012869808
-0.069814429 0.085745521 0.015720366
0.076314315 0.084737942 0.014711426
-0.069119006 0.095744364 0.015176607
0.07575468 0.095095903 0.015324449
-0.067773789 0.10546447 0.01494589
0.046495669 0.10983025 0.018871171
0.055037819 0.10961106 0.017522858
0.064897969 0.10906394 0.015288647
0.073874593 0.1048087 0.015027829
-0.062510066 0.11101995 0.014028419
-0.054807991 0.11144321 0.01535576
-0.04520553 0.11187036 0.015067111
-0.035187326 0.11173397 0.015179379
-0.024724469 0.11162911 0.014543926
-0.01488481 0.11143149 0.015055048
-0.0048946189 0.11128226 0.014820259
0.004893783 0.11099464 0.015138531
0.01503076 0.11082185 0.014924875
0.02481938 0.11101532 0.015070162
0.034885038 0.11075223 0.01492432
0.044620503 0.11052325 0.013812415
0.054686863 0.11029537 0.012398975
0.06173237 0.11011891 0.010585661
-0.072343126 -0.11350539 0.024449971
-0.065090865 -0.11526664 0.025721025
-0.055400576 -0.11622481 0.02589637
-0.045114927 -0.11722115 0.025210688
-0.035091925 -0.1175448 0.02512762
-0.024971936 -0.11788812 0.02541271
-0.014969155 -0.11811866 0.025162356
-0.0054564732 -0.11824213 0.024779638
0.0048537934 -0.11835468 0.025225617
0.015204869 -0.11860992 0.025252217
0.025111513 -0.11882529 0.025273744
0.034853756 -0.11909159 0.025247039
0.044688806 -0.11925452 0.025134452
0.055075619 -0.11939046 0.024923231
0.065744139 -0.11905024 0.025614234
0.07098753 -0.11454372 0.024528323
-0.073012806 -0.10504454 0.025035648
-0.065253794 -0.10555598 0.029557515
-0.059266999 -0.10834038 0.029965185
0.069472313 -0.1065007 0.029864166
0.071425445 -0.10507464 0.024695132
-0.072931588 -0.094392508 0.025660142
-0.066534333 -0.094851397 0.029549412
0.071733169 -0.095205508 0.025751235
-0.072799966 -0.084840029 0.025756869
-0.066829421 -0.084981486 0.02965684
0.072110057 -0.085453078 0.025785157
-0.072810315 -0.074835368 0.025423359
-0.067826651 -0.075239405 0.029737292
0.07250686 -0.075625643 0.025003294
-0.072468609 -0.06480632 0.02612645
-0.068802334 -0.064886801 0.029897219
0.072717391 -0.065370105 0.025453327
-0.072533153 -0.054791972 0.025402278
-0.069513418 -0.055244725 0.029948415
0.073093526 -0.055097785 0.025107564
-0.072293788 -0.044815503 0.025489757
-0.069097504 -0.045012847 0.029912271
0.073317513 -0.045114674 0.025400808
-0.072158195 -0.035243232 0.025712669
-0.0687638 -0.034932796 0.029868335
0.073599271 -0.034468185 0.02482022
-0.071909569 -0.024836188 0.025723862
-0.068791151 -0.025140414 0.029845729
0.073794141 -0.024610573 0.024869241
-0.071890794 -0.015141336 0.02493991
-0.068725601 -0.015141005 0.029824816
0.073886417 -0.015221366 0.025359426
-0.071704432 -0.0051334812 0.025124354
-0.068791516 -0.0060548065 0.029899605
0.074117966 -0.004738274 0.025211351
-0.071535423 0.0055374363 0.025129348
-0.069177769 0.0030059791 0.029972237
0.0744453 0.0048194006 0.02460427
-0.071350649 0.014465237 0.025099238
-0.069749139 0.016080882 0.02979547
0.07471025 0.015233606 0.024904503
-0.071188122 0.025405541 0.024497291
-0.069695294 0.026335685 0.029484011
0.074915901 0.025075374 0.025252411
-0.070976883 0.035340969 0.02486044
-0.069608085 0.035299737 0.029448425
0.07519462 0.034446578 0.024551103
-0.070819877 0.045508884 0.02490806
-0.069595471 0.045179423 0.029461086
0.075450949 0.044559408 0.025226431
-0.070586547 0.054671172 0.024603792
-0.069697596 0.054821543 0.029625822
0.075756848 0.054810897 0.024995944
-0.070281692 0.064439118 0.024281191
-0.069679387 0.064534374 0.029403811
0.076023884 0.065297201 0.024646023
-0.070105217 0.07191658 0.021983085
-0.069731601 0.075648852 0.026061155
0.076156743 0.074806102 0.02569381
-0.069398664 0.085038595 0.024888271
0.075940639 0.084650032 0.025141954
-0.068805404 0.09547276 0.025094109
0.075193852 0.095059074 0.024855928
-0.065903321 0.10614165 0.024953356
-0.055229098 0.10900434 0.026164021
-0.044832014 0.10947686 0.027160121
-0.035326697 0.10939954 0.027657023
-0.024261288 0.10929964 0.027405662
-0.015063538 0.10939692 0.026664075
-0.0049106409 0.10925417 0.027078183
0.0045439792 0.10931805 0.025734846
0.014364674 0.10935093 0.02540963
0.024782892 0.10914923 0.026174866
0.035185914 0.10905046 0.026275726
0.044827513 0.10910735 0.024983289
0.054814156 0.10854319 0.024630783
0.064772792 0.10717045 0.025336245
0.073404387 0.10410403 0.024654284
-0.060467191 0.1100757 0.020056203
-0.053183343 0.11023377 0.021371396
-0.045101259 0.11049155 0.022343718
-0.035548802 0.11048581 0.022416241
-0.024658704 0.11045587 0.022294547
-0.015048861 0.11049935 0.021694195
-0.0057314206 0.1102455 0.021960985
0.0049092174 0.1100936 0.020832213
0.017127542 0.11019644 0.020759877
0.024563316 0.11024444 0.021051902
0.032687776 0.1101388 0.020809921
-0.053597283 -0.11206475 0.030283049
-0.044074185 -0.11306319 0.030795913
-0.034737304 -0.11389372 0.031014629
-0.025110081 -0.11438645 0.031221438
-0.015003274 -0.11426174 0.031484447
-0.0052834069 -0.11438598 0.031587202
0.0055029634 -0.11426608 0.031764224
0.014970873 -0.11515793 0.031641763
0.024749728 -0.11456729 0.031789139
0.034832321 -0.11468078 0.031836372
0.044930059 -0.11484256 0.031601489
0.054610424 -0.1149563 0.031188322
0.063757844 -0.11446358 0.03054985
-0.061318815 -0.10116585 0.030159876
-0.054498389 -0.10499293 0.030480258
-0.044848196 -0.10487069 0.031213261
-0.034997512 -0.10538547 0.031756982
-0.025107158 -0.1051164 0.032055315
-0.015269416 -0.10546873 0.032267217
-0.0053905346 -0.10517219 0.03249659
0.0053317798 -0.10500649 0.032656249
0.015619327 -0.10511675 0.032686055
0.024860431 -0.10486192 0.032688934
0.034444079 -0.10530303 0.032641396
0.044519912 -0.10567017 0.03247226
0.054935247 -0.10477623 0.031747933
0.064823903 -0.10516984 0.030817768
-0.061613832 -0.094458543 0.030251287
-0.054989062 -0.094810583 0.03091184
-0.044462331 -0.094717108 0.031676129
-0.035417166 -0.095284313 0.032166407
-0.025074141 -0.09487883 0.032525029
-0.01483986 -0.095222652 0.032747548
-0.0049229609 -0.095137171 0.032952432
0.0050004688 -0.095054992 0.033075798
0.01466337 -0.094842896 0.033165846
0.024822166 -0.095778689 0.033193305
0.034655254 -0.095369279 0.03308462
0.044957023 -0.094574086 0.032817483
0.055119354 -0.09537936 0.031966887
0.06540703 -0.095439307 0.031025998
0.070214987 -0.091977194 0.030148279
-0.062230598 -0.084315322 0.030302908
-0.054874133 -0.085390508 0.031191608
-0.045021012 -0.085012741 0.031865787
-0.035187457 -0.085140437 0.032337092
-0.024855215 -0.085579403 0.03270914
-0.014785928 -0.084758893 0.033037458
-0.0043736468 -0.085324064 0.033190664
0.0048772027 -0.084716104 0.033295918
0.014733448 -0.08521913 0.033381898
0.024725417 -0.085008599 0.033432897
0.035669517 -0.085250311 0.033241499
0.044654276 -0.084593765 0.03301961
0.054474268 -0.085370786 0.032243881
0.064580165 -0.085278697 0.031360619
0.070395201 -0.082449093 0.030253569
-0.062963493 -0.074593447 0.030432895
-0.054957625 -0.074895591 0.031188978
-0.044912081 -0.074474938 0.031903744
-0.035353504 -0.075283498 0.032472458
-0.024827145 -0.075170062 0.032859653
-0.015019907 -0.074616283 0.033201415
-0.0052607069 -0.075434715 0.033380661
0.004882127 -0.074856736 0.033493701
0.015264719 -0.075102456 0.033591386
0.025204057 -0.074847274 0.033613238
0.035329342 -0.075701505 0.033412144
0.044940319 -0.074745081 0.033190377
0.055095933 -0.075326882 0.032435473
0.064826556 -0.075015888 0.031617429
0.07037583 -0.074871406 0.030401187
-0.063978478 -0.064867228 0.030407293
-0.055028595 -0.064733878 0.031101303
-0.044547122 -0.064847022 0.031923681
-0.034671251 -0.064502306 0.032580685
-0.024651088 -0.064594477 0.033012372
-0.014938111 -0.06486804 0.033334743
-0.005006237 -0.065111689 0.033571426
0.0053748344 -0.065044627 0.033688184
0.014458349 -0.064796485 0.033781443
0.024989296 -0.064723015 0.033783581
0.034966331 -0.065125711 0.033601645
0.045044564 -0.065147348 0.033350863
0.054785166 -0.06480068 0.032747
0.065063052 -0.064842194 0.03188565
0.070661835 -0.064833447 0.030481827
-0.064602219 -0.05472479 0.030376039
-0.055097349 -0.05468962 0.031166796
-0.045439951 -0.055503093 0.031923253
-0.035249785 -0.054630186 0.03253901
-0.02485249 -0.055310335 0.033100072
-0.014909429 -0.055429019 0.033460051
-0.0049958117 -0.054598495 0.033734735
0.0053237868 -0.054987643 0.033878118
0.014952272 -0.054988109 0.033925917
0.024888698 -0.054911554 0.033920579
0.034796793 -0.055191066 0.033771474
0.044319898 -0.054451812 0.033444148
0.054787505 -0.055405483 0.032926887
0.065341324 -0.054479416 0.032134622
0.071087822 -0.054061662 0.030883061
-0.064036168 -0.044971097 0.030376306
-0.054882783 -0.044855949 0.031218313
-0.04439928 -0.045327932 0.032020487
-0.034822982 -0.045179822 0.032564394
-0.025553396 -0.044703417 0.033093709
-0.014839565 -0.044838987 0.033594564
-0.0047968808 -0.044950835 0.033870101
0.0048697591 -0.045436062 0.034026593
0.014687597 -0.045325782 0.034033664
0.024313116 -0.045169458 0.034036513
0.034929719 -0.044799738 0.033884373
0.04482393 -0.045160741 0.033446375
0.05502563 -0.045363747 0.032981724
0.065332286 -0.045197099 0.032354951
0.070970803 -0.0454189 0.031329487
-0.063045874 -0.035134461 0.030424664
-0.055273984 -0.034732036 0.031195298
-0.045120273 -0.035347756 0.032034893
-0.03531814 -0.035084877 0.032595705
-0.024770936 -0.035225317 0.033223659
-0.014738583 -0.034919642 0.033687465
-0.0049800202 -0.034510862 0.033996612
0.0052462667 -0.035073001 0.034167994
0.014843421 -0.034758266 0.034174494
0.024663938 -0.034680825 0.03418133
0.034703337 -0.035123236 0.033997793
0.045332722 -0.035357274 0.033488732
0.055107232 -0.034917042 0.0330307
0.06467621 -0.034935541 0.032561034
0.071412131 -0.035511587 0.031067841
-0.064052835 -0.025225068 0.030348821
-0.054559659 -0.025416084 0.031311382
-0.045203023 -0.025230493 0.032093305
-0.034683391 -0.024902936 0.032722801
-0.025104858 -0.02473695 0.033334527
-0.01469556 -0.024597535 0.033760384
-0.0046346928 -0.024955746 0.034103751
0.0051650256 -0.024821123 0.034309026
0.01488452 -0.025600821 0.034312047
0.025217561 -0.025432512 0.034331143
0.034398742 -0.025078533 0.034148242
0.044782821 -0.025056968 0.033651337
0.054970622 -0.024510656 0.033200387
0.064486474 -0.025652733 0.03274931
0.07164868 -0.024744144 0.031034188
-0.063894264 -0.015127371 0.030345896
-0.055196583 -0.015001521 0.031270318
-0.04474454 -0.014876507 0.032204457
-0.035198215 -0.015053476 0.032827038
-0.024843892 -0.014539608 0.033466499
-0.015384337 -0.015342773 0.033825837
-0.0046443585 -0.014960651 0.03421757
0.0058308896 -0.014461779 0.034450926
0.015650971 -0.015032472 0.03447488
0.025139406 -0.015716931 0.034486532
0.035108387 -0.01519487 0.034269128
0.045335978 -0.014056894 0.033879187
0.054669194 -0.014670439 0.033497591
0.065092765 -0.015021504 0.032833852
0.071672544 -0.01579551 0.031411275
-0.064108141 -0.0043875491 0.030416386
-0.055385858 -0.0045245951 0.031307701
-0.045471776 -0.0050064386 0.032230932
-0.03541733 -0.004853094 0.032974713
-0.024223315 -0.0054531186 0.033605352
-0.015535711 -0.0052549634 0.033967238
-0.0044861739 -0.0048560323 0.034388129
0.0054904153 -0.0051078843 0.034559213
0.015071253 -0.005109841 0.034598194
0.024895128 -0.0057656229 0.034639969
0.035130881 -0.0047872523 0.034462292
0.045040634 -0.0053158202 0.034138002
0.055090267 -0.0050902814 0.033721991
0.064956531 -0.0048682368 0.032916553
0.072007395 -0.0053375321 0.031477805
-0.064501189 0.0051430254 0.030461084
-0.054769438 0.0044197328 0.031367935
-0.045096852 0.0046213376 0.032254525
-0.03520352 0.0053049959 0.033119634
-0.025188213 0.0050855526 0.033675943
-0.014988641 0.0052121398 0.034105908
-0.0050135436 0.0048895376 0.034511544
0.0053082728 0.0050435294 0.034708865
0.014753423 0.0050064526 0.03478967
0.024972413 0.0046524708 0.034816895
0.035018951 0.0047325329 0.034560923
0.045035277 0.0053413678 0.034298416
0.054420732 0.0057929335 0.033980913
0.065245092 0.0052343481 0.033061195
0.072520748 0.0051994179 0.031526532
-0.064796843 0.014955053 0.030528676
-0.054787844 0.01505042 0.03148894
-0.045484837 0.01439723 0.032319929
-0.035072632 0.014543948 0.033234209
-0.024639783 0.014634208 0.033826903
-0.015010984 0.01517382 0.034246475
-0.0050966558 0.014905368 0.034635786
0.0044985223 0.014952299 0.034827814
0.015176728 0.014821415 0.034988217
0.024422558 0.015459097 0.034984648
0.034580264 0.014880563 0.034733187
0.044807766 0.014644898 0.034502853
0.055285346 0.015279024 0.034059025
0.064783648 0.014851235 0.033267435
0.072110631 0.014498618 0.032068785
-0.064882867 0.024990233 0.030570406
-0.055236902 0.025051219 0.031640362
-0.045048106 0.024641927 0.032595195
-0.034996536 0.025512654 0.033375129
-0.024869215 0.025087509 0.033949472
-0.015369031 0.024645898 0.034381099
-0.0048216358 0.024925103 0.034725856
0.004917521 0.024648575 0.034897465
0.015147538 0.025355775 0.035087254
0.025198417 0.025106912 0.03510543
0.034931235 0.024770223 0.034935258
0.045363501 0.025345473 0.034733389
0.055153821 0.024798641 0.03421719
0.065065026 0.024726074 0.033389557
0.072354458 0.025201516 0.032177001
-0.064442955 0.035294559 0.030765478
-0.055257872 0.035053518 0.031749092
-0.044719957 0.035314448 0.03281904
-0.034947407 0.035012841 0.033448249
-0.025250908 0.035534643 0.034012083
-0.015033198 0.035435092 0.034546863
-0.0046552615 0.035169855 0.034799986
0.0053809732 0.034805454 0.034982838
0.015294435 0.034950022 0.035168968
0.024635872 0.035127427 0.035193492
0.035960551 0.035086643 0.035035744
0.044938862 0.035257235 0.034909386
0.055484783 0.034756124 0.034350075
0.06446287 0.035002228 0.033602301
0.07272552 0.035068896 0.032162864
-0.064334951 0.045014195 0.030992256
-0.055082723 0.044454958 0.03196751
-0.044802252 0.045607403 0.032967459
-0.034949087 0.044954862 0.03355835
-0.025035603 0.045283411 0.034127384
-0.014974936 0.045002159 0.034623723
-0.0046076542 0.044901386 0.034876239
0.0052222097 0.045115545 0.035064992
0.014728437 0.045359898 0.035244379
0.02549855 0.045145262 0.035259724
0.03522196 0.044990312 0.035122473
0.044831339 0.045024831 0.034984253
0.055016957 0.044950649 0.034579217
0.064711042 0.04529462 0.033831704
0.073069721 0.045425836 0.032498378
-0.065044485 0.054668088 0.031132216
-0.054796632 0.054687362 0.032158524
-0.044649072 0.055139296 0.033103704
-0.034928482 0.055399943 0.033687253
-0.025051484 0.054767732 0.034190599
-0.014491126 0.055301514 0.034678161
-0.005043942 0.054554246 0.034918834
0.0052974964 0.055018574 0.035133801
0.015107935 0.054923732 0.035327848
0.024978448 0.055272114 0.035344765
0.034787729 0.055008955 0.035201658
0.045364242 0.054966055 0.035047941
0.0551688 0.054891534 0.034665324
0.064768568 0.054389328 0.034049515
0.073173173 0.054553717 0.032574926
-0.065270819 0.065167323 0.031387333
-0.054735813 0.06486965 0.032382082
-0.045135573 0.065140411 0.033195604
-0.03460956 0.064815693 0.033756886
-0.024709396 0.065128997 0.034226488
-0.015184173 0.065014929 0.034661181
-0.005310466 0.065416127 0.034924295
0.0051904484 0.065207817 0.035113543
0.014997829 0.06506902 0.035276521
0.02436289 0.064282626 0.035350602
0.034688268 0.064884342 0.035254773
0.044554558 0.065120153 0.035129443
0.054895949 0.065095611 0.034759518
0.064540535 0.065263622 0.034201153
0.073034026 0.064713322 0.032758351
-0.064964794 0.075310573 0.031537544
-0.05536592 0.075051263 0.032442927
-0.045070104 0.074684583 0.033219133
-0.034853414 0.075366184 0.033697546
-0.024943346 0.074699573 0.034138683
-0.015587265 0.074986406 0.0344918
-0.0050622979 0.075326562 0.034790542
0.0054130368 0.074735597 0.034975331
0.015004999 0.075225726 0.03508715
0.025491439 0.075126112 0.035194475
0.034800626 0.074737959 0.035183772
0.044848036 0.075438872 0.035075724
0.054651149 0.074792311 0.034745771
0.064925089 0.07538674 0.03413913
0.073816061 0.07533671 0.032621015
-0.065092571 0.08480078 0.031439219
-0.0545718 0.084703714 0.032538883
-0.045246113 0.085238524 0.033136673
-0.034765143 0.085059732 0.033568956
-0.025014125 0.084834158 0.033934362
-0.014950085 0.084896058 0.034302134
-0.0051909173 0.08473482 0.0346305
0.005458755 0.084708489 0.034799065
0.015178522 0.085076444 0.034895055
0.025290646 0.084748097 0.035007935
0.035068322 0.084995329 0.035072442
0.045425735 0.08483322 0.034867894
0.054410439 0.084964015 0.03456803
0.065313287 0.084594093 0.034042753
0.073450744 0.085184135 0.032799959
-0.064306371 0.09503711 0.03148504
-0.054927882 0.095157526 0.032453004
-0.044973481 0.095114343 0.032910075
-0.035483487 0.09488555 0.033280022
-0.0250118 0.095295906 0.033641059
-0.015107221 0.094915397 0.034005165
-0.0051869596 0.095572971 0.034146998
0.0046498124 0.095225915 0.034267511
0.015100523 0.095519751 0.034360874
0.024716061 0.094437584 0.034537673
0.035333112 0.095715933 0.034485288
0.045002457 0.095405295 0.034419484
0.05527696 0.094702661 0.03425996
0.064995863 0.094688065 0.03393637
0.073019341 0.094470844 0.032778081
-0.063978948 0.10378422 0.031223873
-0.055191785 0.10469311 0.031755142
-0.044927608 0.10539572 0.031870283
-0.035166495 0.10479844 0.032325771
-0.025191084 0.10477175 0.032564372
-0.015042387 0.10535654 0.032557096
-0.0049516321 0.10496533 0.032815978
0.0049610981 0.10506976 0.032715302
0.015248316 0.10422565 0.033082187
0.02495466 0.10452297 0.033036221
0.034724262 0.10473282 0.03292115
0.044884294 0.10461759 0.032867365
0.054996483 0.10398722 0.032883942
0.064603522 0.10424497 0.03265072
0.072655976 0.10255129 0.032039527
