# .PCD v0.7 - Point Cloud Data file format
VERSION 0.7
FIELDS x y z
SIZE 4 4 4
TYPE F F F
COUNT 1 1 1
WIDTH 775
HEIGHT 1
VIEWPOINT 0 0 0 1 0 0 0
POINTS 775
DATA ascii
-0.020717219 -0.15145905 -0.030318379
-0.014443808 -0.15211669 -0.032540932
-0.0050474126 -0.15251857 -0.033638228
0.0045036501 -0.15247412 -0.033807788
0.014390583 -0.15210535 -0.0324426
0.020134568 -0.15103379 -0.030280424
-0.020717163 -0.14430247 -0.030341581
-0.015209171 -0.14491209 -0.033341262
-0.005344023 -0.14522891 -0.036200944
0.004931259 -0.14515306 -0.036206432
0.014985544 -0.14459434 -0.03330804
0.020744482 -0.14499737 -0.030325873
-0.020623358 -0.13374011 -0.030431697
-0.015017806 -0.13519481 -0.033418808
-0.0052889576 -0.13458997 -0.036144082
0.004996818 -0.13496931 -0.036231972
0.015262675 -0.13472286 -0.033361427
0.020709679 -0.13502552 -0.030433334
-0.020585801 -0.12496296 -0.030381408
-0.015097754 -0.12514298 -0.033364736
-0.004948508 -0.12496444 -0.036185227
0.0047082137 -0.12444764 -0.036440555
0.014952604 -0.12481366 -0.033473644
0.020657001 -0.12451839 -0.030503096
-0.020479444 -0.11508919 -0.03039583
-0.015066201 -0.11482485 -0.03333519
-0.0047783423 -0.11439739 -0.036292311
0.0053624404 -0.11516611 -0.03632652
0.015143781 -0.11477093 -0.033371817
0.020828914 -0.11436298 -0.030447001
-0.020453691 -0.10599099 -0.030381717
-0.015233129 -0.1053441 -0.033275712
-0.0046651713 -0.10491323 -0.036309354
0.0047915438 -0.10493702 -0.036365628
0.015216671 -0.10532244 -0.033433281
0.020549614 -0.10405527 -0.030598992
-0.020450268 -0.094885081 -0.030287245
-0.015289825 -0.094860971 -0.033250023
-0.0052548531 -0.094829485 -0.036235012
0.0053684264 -0.095101297 -0.036321361
0.015122202 -0.095140465 -0.033645764
0.020851357 -0.095291875 -0.030476464
-0.020619035 -0.084996194 -0.030433374
-0.014979168 -0.085099339 -0.033370063
-0.004783398 -0.085074693 -0.036347132
0.005414607 -0.085175402 -0.036431059
0.015616663 -0.084810652 -0.033581067
0.020804791 -0.085266665 -0.030724142
-0.020648461 -0.074014865 -0.030547293
-0.015018721 -0.07523904 -0.03321024
-0.0051874258 -0.075067334 -0.036281738
0.0049072774 -0.074982598 -0.036500491
0.015341649 -0.075439416 -0.033763073
0.020984767 -0.074704044 -0.030785989
-0.020696966 -0.065469742 -0.030440314
-0.014989471 -0.064567938 -0.033206984
-0.005158111 -0.06493853 -0.036284354
0.0046451217 -0.06500677 -0.036451086
0.015383755 -0.064915441 -0.033691704
0.02136685 -0.065820634 -0.0307003
-0.020498587 -0.056001876 -0.030456265
-0.015101846 -0.05486754 -0.033255104
-0.0049096309 -0.055126075 -0.036355551
0.0048039798 -0.05498616 -0.036471903
0.015150992 -0.055096328 -0.033978894
0.021048222 -0.054682609 -0.031006234
-0.020595426 -0.044924662 -0.030362574
-0.014862368 -0.04533847 -0.033368047
-0.0047890591 -0.044826444 -0.036470402
0.0053980178 -0.045115318 -0.036481228
0.014801246 -0.044738103 -0.034205724
0.021181356 -0.045170136 -0.030985208
-0.020665489 -0.035654832 -0.030387459
-0.015068145 -0.034658529 -0.033355828
-0.005311714 -0.034994815 -0.03644678
0.0049492465 -0.035117287 -0.036576703
0.015381435 -0.034452777 -0.033903901
0.021485602 -0.034425713 -0.030941542
-0.020594116 -0.024782652 -0.030447144
-0.015171457 -0.024995841 -0.033322662
-0.0050212494 -0.025150511 -0.036446564
0.0049308995 -0.024890136 -0.03662017
0.015066219 -0.025049269 -0.03405565
0.021374369 -0.025401341 -0.031101441
-0.020575976 -0.015375873 -0.030309534
-0.015096736 -0.014984508 -0.033229385
-0.0048565976 -0.015416401 -0.036434907
0.004840171 -0.014914424 -0.036578365
0.015556852 -0.015152722 -0.033996925
0.021750974 -0.015424287 -0.031099599
-0.020424627 -0.0050298977 -0.030432643
-0.015151837 -0.0050743152 -0.033183213
-0.0052935421 -0.0048676287 -0.036295224
0.0051809563 -0.0050420803 -0.036651004
0.015303797 -0.0051390235 -0.034290683
0.021722553 -0.0046035587 -0.031173227
-0.020550549 0.0057550818 -0.030357484
-0.015532733 0.0049509602 -0.033135094
-0.0047041243 0.0050345478 -0.036344677
0.0057051238 0.0050244848 -0.036697734
0.015111881 0.0049588042 -0.034304924
0.021682203 0.0042432942 -0.031175504
-0.020501697 0.012604224 -0.030209323
-0.015277469 0.015080428 -0.033238512
-0.0050485334 0.015252179 -0.035578281
0.00516584 0.014832096 -0.036354244
0.015267822 0.015125638 -0.034495872
0.021804828 0.015215106 -0.031104838
-0.020503147 0.025887776 -0.030428082
-0.015445617 0.025014115 -0.03264232
-0.0052093165 0.025053468 -0.035032824
0.0049277619 0.024844306 -0.036228441
0.015125331 0.02485723 -0.034711279
0.021574484 0.024945987 -0.031291492
-0.0207182 0.035133496 -0.030677993
-0.015025692 0.035075553 -0.032986842
-0.0050189402 0.035197292 -0.035587545
0.0048437207 0.035081048 -0.036329057
0.015158428 0.034965094 -0.03475875
0.021671681 0.035082627 -0.03121477
-0.020715171 0.044524629 -0.03052518
-0.015292949 0.044989433 -0.033147227
-0.004935429 0.044539966 -0.036040734
0.0050272164 0.045246433 -0.036699578
0.015223979 0.044984814 -0.034710567
0.021742702 0.045164622 -0.031381924
-0.020490507 0.054051239 -0.030523533
-0.015163301 0.05485668 -0.033299521
-0.0053458842 0.055003729 -0.036294803
0.0052861115 0.054344464 -0.036903258
0.014772261 0.055578686 -0.034872785
0.022158375 0.055151455 -0.031323235
-0.020567305 0.065897867 -0.030456314
-0.015172835 0.065347813 -0.033209141
-0.0050563253 0.065825127 -0.036350366
0.0047999192 0.0651384 -0.036907312
0.01493817 0.064702123 -0.03489184
0.021752974 0.065658376 -0.031540073
-0.02061053 0.075014248 -0.030408461
-0.015026471 0.075100712 -0.033389498
-0.0051241633 0.075122125 -0.036544513
0.0046891705 0.074867137 -0.036952846
0.015494807 0.075088039 -0.034913585
0.022138065 0.07494086 -0.031309076
-0.020775286 0.085742407 -0.030501511
-0.015002616 0.085138008 -0.033567794
-0.0049313665 0.085196532 -0.036784779
0.0050295065 0.085470483 -0.037229799
0.015048252 0.085526176 -0.034985092
0.021956293 0.085204393 -0.03160451
-0.021384491 0.094731189 -0.030726047
-0.014972758 0.094754115 -0.034254674
-0.0051235361 0.094898343 -0.037336551
0.0051113702 0.095092721 -0.03784772
0.01505265 0.095222689 -0.035411518
0.022502355 0.095321089 -0.031704918
-0.0034717624 0.10027112 -0.038353059
0.0044560083 0.10041276 -0.038618844
0.011229729 0.10003456 -0.036934447
-0.030438889 -0.151813 -0.020180276
-0.024434939 -0.15221353 -0.024736885
-0.014922266 -0.15302034 -0.025368841
-0.0051034372 -0.15292403 -0.02558787
0.0050512045 -0.15285805 -0.024806058
0.01510191 -0.15282489 -0.025192369
0.02452131 -0.15212815 -0.024226246
0.030019218 -0.15027586 -0.020503808
-0.030421808 -0.14584482 -0.020749584
-0.026192434 -0.14483514 -0.025766138
0.02570731 -0.14488186 -0.025877049
0.030574059 -0.14414589 -0.020582134
-0.030577432 -0.13488163 -0.020664811
-0.026004951 -0.13493715 -0.02589679
0.025867354 -0.13514829 -0.025864709
0.030630253 -0.13513084 -0.020704012
-0.030506894 -0.12689252 -0.02042984
-0.025696874 -0.12497268 -0.025986627
0.026086178 -0.12568922 -0.025717439
0.030638361 -0.1258795 -0.020808909
-0.030369468 -0.11493088 -0.020471077
-0.02590334 -0.11471525 -0.025665279
0.026093837 -0.11490905 -0.025820132
0.030514801 -0.11491432 -0.021013541
-0.03056236 -0.10475597 -0.020567661
-0.025552165 -0.10482146 -0.026093515
0.026098959 -0.10512993 -0.025873201
0.030804757 -0.10542842 -0.020767897
-0.030525383 -0.094942331 -0.020734949
-0.02554038 -0.095045149 -0.026168963
0.025996061 -0.095406637 -0.026155056
0.03078215 -0.09422709 -0.021008777
-0.030479442 -0.086166635 -0.020790318
-0.026121465 -0.085176066 -0.025721187
0.025860801 -0.084564582 -0.026536282
0.030721461 -0.085240506 -0.02121775
-0.030469138 -0.075003989 -0.020696161
-0.025864648 -0.075003482 -0.026003316
0.025965983 -0.074902698 -0.026641181
0.030993672 -0.075361222 -0.021108164
-0.030503677 -0.06505347 -0.020968894
-0.026186826 -0.064998217 -0.02567534
0.026586056 -0.064870417 -0.026456211
0.030950725 -0.064356804 -0.021534959
-0.030693863 -0.054512672 -0.020731535
-0.02585916 -0.055096216 -0.025909107
0.026685432 -0.055215351 -0.026490277
0.031129112 -0.055320241 -0.021516947
-0.030631918 -0.04570419 -0.020730304
-0.026127618 -0.044489533 -0.025686113
0.026282828 -0.044894934 -0.026921248
0.031278443 -0.044915233 -0.021593945
-0.030661475 -0.035643294 -0.020658148
-0.025229214 -0.034985323 -0.026476922
0.026452867 -0.034792334 -0.027023152
0.03127585 -0.034510922 -0.022019858
-0.030516455 -0.025298441 -0.020911168
-0.025779542 -0.024946406 -0.02589725
0.026584158 -0.025126001 -0.027102185
0.031524263 -0.024375072 -0.021958079
-0.030551845 -0.015302324 -0.020848779
-0.025832552 -0.014584659 -0.025805462
0.026891775 -0.014890553 -0.027195754
0.031360574 -0.014943121 -0.022264771
-0.030415742 -0.0054670903 -0.020613028
-0.025726562 -0.0050371764 -0.025842028
0.026880089 -0.0053934972 -0.027299253
0.031493463 -0.005419598 -0.022148669
-0.030308237 0.0038472468 -0.020616209
-0.025824681 0.0049510221 -0.025466148
0.026678547 0.0051113265 -0.027386555
0.031637337 0.0044288021 -0.022280369
-0.030239964 0.013731081 -0.020437311
-0.025655376 0.015342133 -0.02485106
0.026665032 0.014937421 -0.026954839
0.032006141 0.014961834 -0.021962041
-0.030254211 0.028948434 -0.020325692
-0.025093857 0.024889933 -0.025211971
0.026813237 0.025095098 -0.026957007
0.031882107 0.025014134 -0.021938089
-0.030658908 0.035685185 -0.020654293
-0.025886565 0.035269916 -0.02609048
0.026739735 0.035198085 -0.027283866
0.031803839 0.035341542 -0.022122785
-0.030645227 0.044847071 -0.020856533
-0.02606678 0.045168832 -0.025940606
0.026942961 0.044879694 -0.027296927
0.031750251 0.04444813 -0.022210814
-0.03056765 0.055299964 -0.020975539
-0.026056673 0.055022236 -0.025892349
0.02696918 0.05527135 -0.027558936
0.031689622 0.055401374 -0.022393418
-0.030548763 0.065110631 -0.020896543
-0.02575314 0.065862462 -0.025856577
0.02710822 0.06533388 -0.027532576
0.031738754 0.064588837 -0.022448041
-0.030463561 0.075802043 -0.020598037
-0.025605507 0.075174995 -0.025984317
0.027239172 0.075150155 -0.027462576
0.031717315 0.074950807 -0.022432093
-0.030407367 0.084766626 -0.020654237
-0.025736459 0.084897041 -0.02584051
0.02758397 0.085366324 -0.027234739
0.03187472 0.084889382 -0.022123663
-0.030967468 0.095647149 -0.021390621
-0.02585089 0.095023327 -0.025879487
0.027298279 0.095785491 -0.027289933
0.032139737 0.096036427 -0.022597773
-0.030640373 0.10017606 -0.020706041
-0.029034818 0.10011362 -0.023231646
-0.032508537 -0.15208641 -0.01465686
-0.025310215 -0.1529987 -0.014788154
-0.014577277 -0.15291406 -0.015148439
-0.0051670587 -0.1528147 -0.015055337
0.0052142334 -0.15275112 -0.015369239
0.015697815 -0.15274674 -0.014693017
0.024795255 -0.15264736 -0.0149258
0.032868944 -0.15186922 -0.013724261
-0.033651002 -0.14498042 -0.015082889
0.033549413 -0.1445879 -0.014997623
-0.033780579 -0.13513409 -0.015182769
0.033434991 -0.13491186 -0.015578585
-0.033677954 -0.12476362 -0.015153931
0.033802096 -0.12480173 -0.015018257
-0.033404976 -0.11495325 -0.015343327
0.033920329 -0.1151288 -0.014981684
-0.033499651 -0.10467523 -0.015233371
0.034077827 -0.10490678 -0.014968778
-0.033556491 -0.094900236 -0.015215544
0.034091517 -0.095060401 -0.015180551
-0.033608239 -0.084878005 -0.015316112
0.034125783 -0.084803142 -0.015234462
-0.033687912 -0.074695297 -0.015143733
0.034598079 -0.074788734 -0.014474048
-0.033696637 -0.06488324 -0.015225383
0.034375407 -0.064974055 -0.015387805
-0.033608805 -0.055166379 -0.015372781
0.034469582 -0.055304896 -0.015409329
-0.033677798 -0.045124859 -0.015196679
0.034912173 -0.045078747 -0.014809186
-0.033538964 -0.035162646 -0.015432939
0.03508592 -0.034662858 -0.014899659
-0.03362206 -0.024584873 -0.015264573
0.035315119 -0.025467837 -0.014621393
-0.033699002 -0.014934975 -0.015187426
0.034967154 -0.015432571 -0.015629387
-0.033711385 -0.0050363191 -0.015101107
0.035262331 -0.0051600947 -0.015199905
-0.033733573 0.0051575662 -0.015169297
0.035459157 0.0049591926 -0.015102345
-0.033876706 0.014764214 -0.014936379
-0.029993268 0.019235147 -0.019878373
0.035463408 0.015180362 -0.015423199
-0.033570133 0.024865123 -0.0151431
-0.029659057 0.023891633 -0.019711694
0.03548057 0.024657123 -0.015315548
-0.033968046 0.035171408 -0.015332653
0.035507727 0.035198048 -0.015428098
-0.033878047 0.044687826 -0.015244519
0.035621408 0.044947989 -0.015328457
-0.033696935 0.054740705 -0.015370647
0.03567636 0.055131614 -0.015212741
-0.033445526 0.065827772 -0.014906351
0.035704784 0.064954996 -0.014912958
-0.033218365 0.074852854 -0.015044138
0.035537474 0.075000741 -0.015108536
-0.032927442 0.085017249 -0.015102915
0.0356039 0.084889427 -0.014677209
-0.033161141 0.095009856 -0.01505787
-0.029863929 0.095560268 -0.019640718
0.035616543 0.095747232 -0.01481702
-0.032672208 0.10013506 -0.017131316
-0.033880901 -0.15246505 -0.0047322065
-0.024835309 -0.15278965 -0.004998351
-0.015090988 -0.15270908 -0.0047844951
-0.0051788939 -0.15265127 -0.0047840113
0.0052061807 -0.15262988 -0.0048021232
0.014624201 -0.1526518 -0.0051478338
0.025131764 -0.15267254 -0.0046292143
0.034196392 -0.15232037 -0.004842795
-0.036670297 -0.1451261 -0.0049179923
0.036521479 -0.14475644 -0.0053714379
-0.036521759 -0.13490492 -0.0051424871
0.036628112 -0.1350534 -0.0054450417
-0.036869109 -0.12448788 -0.0048164679
0.036714267 -0.12500703 -0.0053062295
-0.036682576 -0.11536911 -0.0052561713
0.036825743 -0.11514243 -0.0050674952
-0.036720492 -0.10522353 -0.0049057207
0.036882233 -0.10503507 -0.0053913882
-0.036666688 -0.095319547 -0.0052687954
0.037048228 -0.095061332 -0.0046389294
-0.036697485 -0.08487469 -0.005040491
0.037138063 -0.084728122 -0.0047544395
-0.036597058 -0.074791893 -0.0053915628
0.037319828 -0.074557491 -0.0049212016
-0.036727604 -0.065094307 -0.0047892034
0.037320506 -0.065159157 -0.0051417621
-0.036755223 -0.054980569 -0.0047477554
0.037316144 -0.055171549 -0.004985169
-0.036671098 -0.045095295 -0.0050950525
0.03743007 -0.044762578 -0.0047435863
-0.036689006 -0.035134003 -0.0050808941
0.037451159 -0.035246208 -0.0048744823
-0.036664736 -0.024821484 -0.0051738718
0.037471022 -0.025351601 -0.0050556762
-0.0367704 -0.015129803 -0.0048839017
0.037491057 -0.015348742 -0.0051693278
-0.036819056 -0.0049940511 -0.0050240718
0.037547134 -0.004729405 -0.0053709522
-0.036994111 0.0051648831 -0.0045408038
0.037630729 0.0048708208 -0.0046924823
-0.036904354 0.014776563 -0.0050821686
0.037771661 0.015041768 -0.0054953774
-0.036849584 0.024870632 -0.0049506333
0.037826702 0.025041396 -0.0048002792
-0.03694823 0.034555409 -0.0046301498
0.03789819 0.035087831 -0.0050590937
-0.036808893 0.045027222 -0.0052610757
0.038058769 0.044892397 -0.0051628649
-0.036651138 0.055011891 -0.0048887632
0.037973456 0.054957382 -0.0051635471
-0.036115143 0.065317616 -0.0055595138
0.037891235 0.065171801 -0.0048145992
-0.035836644 0.075008631 -0.0050294511
0.037762757 0.075025521 -0.0052299076
-0.035566125 0.084651649 -0.0048930142
0.037774432 0.085085757 -0.0050341212
-0.035506774 0.093633451 -0.0055588628
0.03776319 0.095731892 -0.0052995747
-0.0343685 -0.15236987 0.005145587
-0.024813697 -0.15258275 0.0048386711
-0.014937257 -0.15249705 0.0051954733
-0.0050695986 -0.1524791 0.0047060596
0.0049977116 -0.15247075 0.0048493161
0.015214618 -0.15252119 0.0050342251
0.025043985 -0.15262611 0.0046690148
0.033725761 -0.15242389 0.0049107233
-0.036832098 -0.1452149 0.0050739185
0.036728118 -0.14467464 0.0051084524
-0.036928322 -0.13495812 0.0049787466
0.036886305 -0.13513976 0.0046844706
-0.036960896 -0.12499938 0.0048165773
0.036839455 -0.12472589 0.004711756
-0.036916055 -0.11495665 0.0046665235
0.03681824 -0.11495868 0.0051212921
-0.036774602 -0.10494111 0.0052402299
0.036870215 -0.10454728 0.0049789469
-0.036705896 -0.094710678 0.004876317
0.036926653 -0.095132798 0.0052043209
-0.036681913 -0.085216008 0.0048035979
0.037009008 -0.085338481 0.0048120548
-0.036587726 -0.074861646 0.0052613858
0.036905617 -0.075107209 0.0055437908
-0.036540695 -0.065404475 0.0051193461
0.036892679 -0.06538476 0.0052230642
-0.036514789 -0.055103656 0.0051969527
0.036960948 -0.05548187 0.0047416314
-0.036459643 -0.044577535 0.0048368126
0.037044186 -0.044754095 0.0048690625
-0.036396746 -0.034606192 0.0051013967
0.036911588 -0.035351623 0.0051204977
-0.036321662 -0.02500922 0.0049212547
0.036760062 -0.025093757 0.0047218609
-0.036351126 -0.015370145 0.0047642915
0.03673644 -0.015290112 0.0046481704
-0.036227752 -0.005120547 0.0050522634
0.036657009 -0.0044632857 0.0047274055
-0.036145639 0.0046533728 0.0051156878
0.036387008 0.0051358389 0.0051748226
-0.035728008 0.014518696 0.0050899214
0.036025438 0.014803523 0.004865197
-0.035321396 0.025061805 0.0047737067
0.035496354 0.025326803 0.0052400054
-0.035095617 0.034793805 0.0053245868
0.03573994 0.035350066 0.0052142944
-0.035637923 0.044989791 0.0046161823
0.036273696 0.044971611 0.0052264845
-0.035658464 0.054997031 0.0052109989
0.036651738 0.054791614 0.0051697991
-0.035381775 0.065452419 0.0054260632
0.036909342 0.065320022 0.0051368098
-0.035207152 0.07511209 0.0052630473
0.037222445 0.074720651 0.0043965606
-0.035165083 0.08503513 0.0051685874
0.037375025 0.084766537 0.0048345067
-0.035055354 0.094097644 0.005186317
0.037412129 0.095663376 0.004950806
-0.032764949 -0.15185189 0.014460198
-0.025060244 -0.15222211 0.015097625
-0.015250779 -0.1522184 0.01492863
-0.0046222601 -0.15227516 0.015000789
0.0050669145 -0.15233129 0.014803629
0.014848159 -0.15243225 0.014824929
0.024786405 -0.1525363 0.015116119
0.032527827 -0.15190658 0.014725544
-0.034156077 -0.14530903 0.015109285
0.03399758 -0.14475608 0.015132692
-0.034107253 -0.1348497 0.015033457
0.033896476 -0.13498995 0.015291002
-0.034202207 -0.12453113 0.014865449
0.034160282 -0.12492614 0.014674162
-0.03393605 -0.11490548 0.015170105
0.033770323 -0.1153098 0.015573063
-0.033656314 -0.10507568 0.015323234
0.03393979 -0.10511497 0.015108414
-0.03357647 -0.094949305 0.015576349
0.034024596 -0.09464711 0.014897015
-0.033725124 -0.085004598 0.0150144
0.033748399 -0.08471556 0.015079002
-0.033673082 -0.075431257 0.014839107
0.033559494 -0.075338729 0.015247771
-0.033294424 -0.065215863 0.015250803
0.03381791 -0.064653471 0.014699716
-0.032971315 -0.054809459 0.015557247
0.033643406 -0.055344608 0.015160077
-0.033159476 -0.045005422 0.014983372
0.03358851 -0.045000561 0.014887145
-0.033055797 -0.0350243 0.014993547
0.03342206 -0.035184242 0.015097191
-0.033020176 -0.024806537 0.01465451
-0.029945292 -0.024496168 0.019966455
0.033256084 -0.025045129 0.01511846
-0.032724548 -0.015149661 0.01466425
-0.029683331 -0.012914015 0.019761246
0.03309359 -0.015181943 0.015191215
-0.032440979 -0.0046962053 0.014689509
-0.029703191 -0.0058347513 0.019402254
0.032891907 -0.0053837034 0.01523767
-0.032476366 0.0049412162 0.014204127
-0.029502891 0.0048719104 0.019314112
0.032704234 0.0050830417 0.014890059
-0.031972196 0.015257025 0.014287595
-0.029330265 0.01485235 0.019206781
0.029811576 0.0148512 0.019800404
0.032132998 0.014915638 0.014957746
-0.03160736 0.024929607 0.013642436
-0.029378884 0.024719985 0.018506303
0.029701596 0.023649411 0.018993704
0.031871133 0.024757085 0.014145928
-0.031599522 0.03514751 0.013329143
-0.029196993 0.035410244 0.018472878
0.029555149 0.035042126 0.019207228
0.032049052 0.035583012 0.014193993
-0.031734735 0.044770911 0.01401201
-0.029443631 0.044990487 0.018850878
0.029675379 0.042249195 0.019473795
0.03227159 0.045453973 0.01509102
-0.032046139 0.054408487 0.01438891
-0.029552704 0.0550097 0.019093355
0.032865684 0.054782372 0.015126435
-0.032225545 0.065707222 0.014012259
-0.02924707 0.06608706 0.018862078
0.033345204 0.064712249 0.015118304
-0.032132648 0.075133704 0.014153721
-0.02919649 0.074533045 0.018850362
0.034113187 0.074959762 0.014397071
-0.032356814 0.085007668 0.014197024
-0.029389471 0.085434183 0.019228585
0.03414036 0.085163757 0.015085918
-0.032424442 0.094202779 0.014543379
-0.029416252 0.093797795 0.018760843
0.029863406 0.094842508 0.019910924
0.034194678 0.09539523 0.01492626
-0.030088902 -0.15117779 0.021871988
-0.024486648 -0.15150754 0.024440004
-0.014835777 -0.15182975 0.02503965
-0.0054450743 -0.15191415 0.025372339
0.0050283768 -0.15213701 0.025006223
0.015155148 -0.15234959 0.02498395
0.024331378 -0.15198869 0.024839072
0.031009346 -0.15081893 0.0207459
-0.030887412 -0.14582376 0.021198841
-0.026590599 -0.14524814 0.026404712
0.026655162 -0.14526221 0.026025895
0.030831715 -0.14525378 0.02110631
-0.030727303 -0.13523954 0.021386757
-0.026061263 -0.1351659 0.026750293
0.026292253 -0.13526456 0.026412483
0.030702157 -0.13562819 0.02090665
-0.030849079 -0.12547676 0.021235898
-0.026425693 -0.12510383 0.02618291
0.026048664 -0.12532949 0.026429916
0.030820608 -0.12579232 0.021063454
-0.030903127 -0.11500047 0.021134134
-0.025931032 -0.11525878 0.026469691
0.026676884 -0.11451929 0.025838114
0.03095117 -0.11472239 0.020838242
-0.030926365 -0.10538003 0.02095791
-0.025673311 -0.10495906 0.026483543
0.026286071 -0.10493097 0.026193572
0.03077578 -0.10511191 0.021047557
-0.03070176 -0.095043212 0.020910291
-0.025874289 -0.094779409 0.026036808
0.026062271 -0.094969481 0.026223358
0.030641194 -0.095442645 0.021065464
-0.030492648 -0.084913045 0.020920463
-0.025726512 -0.085243247 0.025945634
0.026013235 -0.085008785 0.026078129
0.03071684 -0.085699752 0.020633664
-0.03035886 -0.075209349 0.02087584
-0.025827516 -0.075049333 0.025744582
0.026289565 -0.075057648 0.025774578
0.030388571 -0.074827686 0.02076905
-0.030321818 -0.06558533 0.020649135
-0.025642915 -0.065063484 0.025773335
0.026143258 -0.065050371 0.025869288
0.030423455 -0.064620189 0.020974005
-0.030295692 -0.055295572 0.020367423
-0.025646538 -0.054809414 0.025600087
0.026083501 -0.055164602 0.025810067
0.03054399 -0.054103546 0.020732524
-0.030217661 -0.045426928 0.020247228
-0.025626415 -0.045093719 0.025383787
0.026020123 -0.045050424 0.025619298
0.03038341 -0.043852687 0.020414414
-0.025604689 -0.034987632 0.025083628
0.026023461 -0.035048321 0.025596816
0.030271461 -0.035993773 0.020472499
-0.02545948 -0.025309106 0.025216294
0.026092278 -0.025227703 0.025507074
0.030241091 -0.025127983 0.020296128
-0.025115317 -0.015007728 0.025367878
0.026019784 -0.014762795 0.02548369
0.030131185 -0.013179394 0.0201641
-0.025164345 -0.0052505084 0.025031883
-0.019889679 -0.0059744976 0.029930953
0.026081132 -0.0048747924 0.02532397
0.03010999 -0.006848379 0.020251099
-0.024888473 0.0050152531 0.024974119
-0.019820366 0.00558761 0.029892571
0.026264578 0.0050774673 0.025107091
0.030061871 0.0023171103 0.020098981
-0.024639878 0.014811652 0.024963373
-0.019716688 0.016262155 0.029758394
0.026032103 0.01493901 0.025292562
-0.024462538 0.024940595 0.025123574
-0.019633584 0.025861712 0.02966365
0.02609146 0.024816299 0.025276341
-0.024874486 0.034975126 0.02496399
-0.019635532 0.03551067 0.029784096
0.025790181 0.035252068 0.025395392
-0.024476698 0.044700369 0.025394376
-0.019548757 0.046380479 0.029854774
0.025936609 0.044916883 0.025347909
0.030064398 0.049259312 0.020009493
-0.024907582 0.055162255 0.02491316
-0.01965183 0.054079361 0.029791705
0.026050441 0.054600216 0.025429489
0.030294782 0.056528773 0.020162771
-0.024934858 0.065683022 0.02469128
-0.019065818 0.065918177 0.029395934
0.026093328 0.065229774 0.025808308
0.030493163 0.066271514 0.020580323
-0.02472447 0.07484968 0.024764493
-0.018838791 0.075410232 0.029120542
0.025111007 0.07549192 0.026687467
0.030520929 0.074905537 0.020967903
-0.024571668 0.085162021 0.025011344
-0.019105608 0.084921159 0.029446097
0.025542023 0.085195087 0.026222371
0.030682541 0.085140347 0.020976823
-0.030297758 0.096991912 0.020120248
-0.024797553 0.094955362 0.025280772
-0.019142568 0.095035002 0.029388454
0.025492292 0.094239078 0.026352385
0.031283244 0.095683359 0.021369424
-0.022700917 0.10040893 0.027640795
-0.019775679 0.10037564 0.029840536
-0.020685358 -0.15115909 0.030413903
-0.01442625 -0.15123411 0.032774735
-0.005135295 -0.15147053 0.034087453
0.0053022811 -0.1515757 0.034236062
0.014295573 -0.15169168 0.033106305
0.020664858 -0.15144518 0.03071541
-0.021457009 -0.14492233 0.030735219
-0.01552303 -0.14496727 0.033955414
-0.0054417313 -0.14477779 0.037197869
0.004974551 -0.14477034 0.03711478
0.014946423 -0.14496131 0.034198973
0.021202128 -0.14502412 0.030577796
-0.021236012 -0.13448536 0.030788034
-0.014655129 -0.13532642 0.03457981
-0.0052045351 -0.13517705 0.037324376
0.0049354839 -0.13514729 0.037222482
0.015111613 -0.13470298 0.034163076
0.021122221 -0.13498332 0.030826636
-0.02113447 -0.12501238 0.030641872
-0.015094018 -0.12508164 0.034238487
-0.0045626508 -0.1251024 0.037383277
0.0054201437 -0.12534173 0.037319504
0.015109692 -0.12489149 0.034249142
0.021172306 -0.1247306 0.030850757
-0.020886676 -0.11529187 0.030719146
-0.015109654 -0.11486425 0.034049183
-0.0047252765 -0.1150177 0.037277672
0.0052874177 -0.11482498 0.037339244
0.015080796 -0.1148231 0.034321029
0.021327147 -0.11402554 0.030842455
-0.020792872 -0.10584591 0.03068221
-0.015350513 -0.10498942 0.033851258
-0.0051587545 -0.10482604 0.037156519
0.0049222875 -0.10512703 0.037282132
0.015230781 -0.10494906 0.034195729
0.021176331 -0.10491433 0.030902753
-0.020717913 -0.096166566 0.030666864
-0.014948023 -0.095021233 0.033958878
-0.0050582518 -0.095082916 0.037109889
0.0048491308 -0.094738424 0.037267882
0.015301834 -0.095211856 0.034108058
0.021010727 -0.095034838 0.030855307
-0.020869344 -0.085137293 0.030350616
-0.014972922 -0.084576845 0.033781473
-0.005405684 -0.085251659 0.037052557
0.0050686486 -0.084801555 0.037255004
0.015264766 -0.085172556 0.034050293
0.021005398 -0.08469981 0.030798724
-0.020490924 -0.075330153 0.030353369
-0.015272379 -0.074982159 0.033522759
-0.0051011438 -0.075082384 0.037085965
0.0055110659 -0.074806459 0.037245341
0.014903978 -0.07494235 0.034296125
0.021125371 -0.075634949 0.030635087
-0.020277241 -0.065547496 0.030173207
-0.015270591 -0.064787149 0.033365671
-0.0048948703 -0.0651154 0.037045062
0.0049749445 -0.065264173 0.037295021
0.014868686 -0.065020114 0.034317058
0.020892872 -0.064311475 0.030718254
-0.020156857 -0.055220723 0.030268312
-0.015098676 -0.055508763 0.033426452
-0.0048688329 -0.055145051 0.03699138
0.005158898 -0.054855384 0.037130535
0.015189809 -0.054955956 0.034062315
0.02105565 -0.055135168 0.030617772
-0.020282328 -0.044948328 0.030113647
-0.014880795 -0.044944681 0.033430077
-0.0051726061 -0.045334201 0.036858048
0.0045607658 -0.044207469 0.0372453
0.015367392 -0.044670776 0.033940822
0.020790284 -0.04540772 0.030681774
-0.020201972 -0.036140535 0.030153349
-0.014854495 -0.035166427 0.033298992
-0.004410991 -0.035221294 0.037006631
0.0052044634 -0.034851141 0.037270281
0.01513085 -0.035152059 0.034077235
0.02069981 -0.036008522 0.030565275
-0.020238001 -0.025583761 0.030119069
-0.014897946 -0.024853313 0.033169113
-0.0049264939 -0.024980605 0.036871597
0.0050814101 -0.025131775 0.037371468
0.015289962 -0.025160132 0.034047902
0.020852296 -0.024334718 0.030616678
-0.020083543 -0.019090503 0.030104442
-0.015251031 -0.015435339 0.032894492
-0.0048968745 -0.015014889 0.036776952
0.005117808 -0.014462159 0.037277848
0.015183488 -0.014955288 0.034179188
0.020939926 -0.01424538 0.030672261
-0.015161373 -0.004779309 0.032919239
-0.0053550946 -0.0053669685 0.036660254
0.0050093988 -0.0052655246 0.037251521
0.015053211 -0.0050145341 0.034303751
0.020903243 -0.0055116839 0.030762434
-0.014787185 0.0051652566 0.032999299
-0.0044180434 0.0046663135 0.036729228
0.0052793035 0.0054389182 0.037147544
0.015666019 0.0050281407 0.034145277
0.0209422 0.005486602 0.030892765
-0.01464996 0.014954404 0.032936022
-0.0051365397 0.015083208 0.036489487
0.0048538903 0.014966547 0.03711303
0.014829489 0.01466324 0.034535579
0.021012949 0.015281382 0.030970288
-0.014390824 0.024884846 0.033024378
-0.0046129557 0.024874739 0.036649842
0.0051160539 0.024920452 0.036901753
0.015330663 0.02463834 0.034093939
0.02103748 0.024353225 0.030963656
-0.014976425 0.03510569 0.0328256
-0.0047909888 0.034933954 0.036614757
0.0050548366 0.034854084 0.037033588
0.015025022 0.03491411 0.034066483
0.021232883 0.036175039 0.030723061
-0.015157515 0.044952899 0.032694113
-0.0047053345 0.045160782 0.036603756
0.0048238588 0.04450465 0.036970936
0.015417185 0.044569422 0.033933938
0.020790545 0.045198143 0.030661963
-0.015003573 0.054647133 0.032635409
-0.0050274078 0.05602764 0.035887893
0.0053235311 0.055707335 0.03638969
0.014245817 0.055664089 0.034112301
0.020688664 0.054196104 0.03055615
-0.014337611 0.065683022 0.032528352
-0.0052082553 0.065061972 0.035550468
0.0051738173 0.06499362 0.036014665
0.014717546 0.065220729 0.033521939
0.020919669 0.06535051 0.03055647
-0.014549866 0.075065859 0.032423299
-0.0049472209 0.074707925 0.035497263
0.0049700271 0.074824274 0.035794061
0.015100914 0.07490164 0.033178359
0.020919096 0.074873 0.030608993
-0.014691434 0.084946476 0.032291807
-0.0053768666 0.084985852 0.035352215
0.0049788519 0.084992267 0.035661478
0.015381988 0.085094206 0.032917228
0.020776961 0.084078461 0.030595271
-0.020593056 0.097219177 0.030381413
-0.014600286 0.095083773 0.032493506
-0.005148713 0.095110886 0.035466831
0.0048703561 0.094971202 0.035827067
0.01476337 0.094800778 0.033350732
0.02122434 0.096096344 0.030936211
-0.018435288 0.10012797 0.030804848
