# .PCD v0.7 - Point Cloud Data file format
VERSION 0.7
FIELDS x y z
SIZE 4 4 4
TYPE F F F
COUNT 1 1 1
WIDTH 393
HEIGHT 1
VIEWPOINT 0 0 0 1 0 0 0
POINTS 393
DATA ascii
-0.02060663 -0.050568637 -0.030310113
-0.013752028 -0.050913624 -0.032668091
-0.0048337099 -0.05092575 -0.033772491
0.0049293675 -0.050823104 -0.033435203
0.014118892 -0.050753508 -0.032278839
0.020538462 -0.05051291 -0.030273
-0.021106517 -0.044482138 -0.03081161
-0.015203417 -0.044807211 -0.034079753
-0.0049042348 -0.045197275 -0.037145667
0.0051060659 -0.044805527 -0.037204742
0.015092569 -0.044892576 -0.034429245
0.021149889 -0.044155017 -0.03102736
-0.021051729 -0.034865923 -0.030902205
-0.015160741 -0.035052337 -0.034204401
-0.0050805029 -0.034832779 -0.037224799
0.0051134583 -0.034974013 -0.037251629
0.014954858 -0.034988012 -0.034457244
0.021371355 -0.034841649 -0.031026779
-0.021049768 -0.024459483 -0.030780368
-0.015309024 -0.024941023 -0.033967748
-0.0052001229 -0.024601268 -0.037048899
0.0050239055 -0.025055587 -0.037171606
0.015351426 -0.024941841 -0.034153976
0.021348009 -0.025152408 -0.03083574
-0.021002991 -0.015380582 -0.03071581
-0.014976379 -0.014948439 -0.033982228
-0.005316182 -0.015058309 -0.036966734
0.0054452661 -0.015056599 -0.037015952
0.014932121 -0.01505563 -0.034271602
0.02114903 -0.01467951 -0.030834081
-0.020955468 -0.0045996374 -0.03064266
-0.015035983 -0.0045576328 -0.03386832
-0.0052180132 -0.0049821073 -0.036930662
0.0051576877 -0.0047500483 -0.036981434
0.015206131 -0.0049939714 -0.034020875
0.021229444 -0.0047293855 -0.030715732
-0.020875491 0.0047232695 -0.030591343
-0.015063254 0.0049934285 -0.033859339
-0.005172288 0.0050177355 -0.03685711
0.0052704047 0.0047471081 -0.036831085
0.014796654 0.0052604149 -0.034094095
0.02091465 0.0047784247 -0.030831099
-0.020792395 0.015005752 -0.030592432
-0.015077295 0.014833772 -0.033722665
-0.0048554186 0.01488275 -0.036769316
0.0051566884 0.014895156 -0.036712267
0.015440268 0.014979938 -0.033636171
0.020827528 0.014999318 -0.030701727
-0.020753607 0.024955377 -0.030575337
-0.01524898 0.024957351 -0.033575803
-0.0049474095 0.02478197 -0.036641572
0.0049665864 0.025027335 -0.036627296
0.015361352 0.02528416 -0.033521224
0.020697597 0.024937222 -0.030535288
-0.020676414 0.034692165 -0.030513262
-0.015205619 0.035362434 -0.033502474
-0.005331751 0.035250977 -0.03649446
0.00490853 0.035053898 -0.036511611
0.015220669 0.034856569 -0.033437878
0.020627419 0.035146438 -0.030504985
-0.020635089 0.044613965 -0.030410599
-0.015224795 0.044965137 -0.033322278
-0.0048697847 0.045054458 -0.036381595
0.0053815814 0.044864666 -0.036253635
0.01510029 0.045165658 -0.033293065
0.020593762 0.043539323 -0.030379074
-0.020608902 0.050115336 -0.030228881
-0.013759952 0.050802335 -0.032187488
-0.0049496605 0.050898228 -0.033484343
0.0046987468 0.050900821 -0.033325903
0.01394565 0.050833147 -0.031885006
-0.030431304 -0.050324462 -0.02046313
-0.024461456 -0.051080231 -0.02377226
-0.015014571 -0.051163159 -0.025003048
-0.0050166524 -0.051075324 -0.025077535
0.0048910971 -0.05099149 -0.024983956
0.014984665 -0.050931785 -0.025098415
0.023888674 -0.050785623 -0.024062138
0.03018292 -0.050306454 -0.020424049
-0.030482218 -0.045746114 -0.020946907
-0.026510485 -0.04501975 -0.025771946
0.02633548 -0.045171708 -0.026239937
0.030608546 -0.044766601 -0.021225566
-0.030679649 -0.034722757 -0.020990599
-0.026281603 -0.034890875 -0.026195658
0.026511379 -0.035420939 -0.026313446
0.030703865 -0.035696983 -0.021202845
-0.030618453 -0.025317859 -0.02105264
-0.026203744 -0.025163261 -0.02623306
0.026500363 -0.025228631 -0.026175676
0.030758245 -0.024811611 -0.020908974
-0.030598059 -0.015299981 -0.020957945
-0.026253823 -0.014889707 -0.026046388
0.026440823 -0.014992879 -0.026078522
0.030672904 -0.015150673 -0.020937441
-0.030543689 -0.0051596905 -0.020925716
-0.026099358 -0.0050035338 -0.026047271
0.026155179 -0.0051596644 -0.026208844
0.030599551 -0.0049669431 -0.020869706
-0.030569032 0.00489198 -0.020725431
-0.026160084 0.0052645383 -0.025873803
0.02610123 0.0049263304 -0.026136165
0.030492743 0.0053368998 -0.020857666
-0.030383686 0.014025553 -0.020529073
-0.026114635 0.015009275 -0.025804939
0.02602222 0.015128739 -0.025951102
0.03047709 0.014650642 -0.020657854
-0.030303845 0.025388923 -0.020458246
-0.026219441 0.025040641 -0.025550932
0.025897164 0.024894444 -0.025955293
0.030367598 0.024818372 -0.02056017
-0.030425532 0.034510631 -0.020427676
-0.026014507 0.035169251 -0.025705805
0.025847642 0.034922034 -0.02587055
0.03036508 0.034498181 -0.020513766
-0.030373065 0.045410536 -0.020640338
-0.025949402 0.044927001 -0.025692236
0.025674727 0.045045726 -0.02583834
0.030332979 0.044943616 -0.020381993
-0.030269422 0.050088543 -0.020356635
-0.023868924 0.050773606 -0.023670049
-0.015206964 0.050902952 -0.024811462
-0.0052570309 0.050928753 -0.024861204
0.0050932369 0.05094301 -0.025087995
0.015020016 0.050947312 -0.025103983
0.023927603 0.05083482 -0.023774013
0.030136533 0.050028205 -0.020377304
-0.032156333 -0.051091876 -0.014022253
-0.0252421 -0.051296461 -0.015022753
-0.014823611 -0.051220614 -0.015385054
-0.0050049182 -0.051148888 -0.014893727
0.0049805571 -0.051081587 -0.014891908
0.015169966 -0.051023133 -0.01500112
0.025181452 -0.051009297 -0.014899166
0.032130465 -0.050878793 -0.013881614
-0.033520397 -0.045069743 -0.015182581
0.033903643 -0.04483851 -0.015379721
-0.033572659 -0.03478983 -0.015294255
0.033847608 -0.035036918 -0.015379985
-0.033581935 -0.025057426 -0.015167389
0.033752128 -0.024893818 -0.015154883
-0.033654489 -0.015183235 -0.015039897
0.033591729 -0.014929987 -0.015224717
-0.033639904 -0.0051068584 -0.015028376
0.033602372 -0.0047279103 -0.014924653
-0.033596061 0.00507663 -0.015065409
0.033466265 0.0048725074 -0.015050191
-0.033410601 0.014712575 -0.01520329
0.033497203 0.014992612 -0.014831794
-0.033421736 0.024642173 -0.015127797
0.033413909 0.025193093 -0.014846839
-0.033478711 0.034847595 -0.01496309
0.033184901 0.035103869 -0.015199958
-0.033291042 0.045030471 -0.015261631
0.033210631 0.044911031 -0.015033593
-0.032080662 0.050574031 -0.013840223
-0.024991665 0.050750986 -0.015169001
-0.014952872 0.050786365 -0.015028836
-0.0051904432 0.050824441 -0.015085815
0.005238723 0.050861351 -0.015125314
0.014847836 0.050888807 -0.014985685
0.025044624 0.050933279 -0.014956093
0.031891692 0.050744202 -0.014195298
-0.033367727 -0.051320061 -0.0043801866
-0.025122466 -0.05137876 -0.0048486223
-0.014830729 -0.051285375 -0.0048514665
-0.0049352609 -0.051212374 -0.0051698508
0.0053109494 -0.051153086 -0.0049947524
0.014971796 -0.051109716 -0.0049185529
0.025192833 -0.051086761 -0.0052734888
0.033258539 -0.050963916 -0.0050727846
-0.036113147 -0.045026861 -0.0048111258
0.03639764 -0.045215406 -0.0047050794
-0.036260903 -0.035112023 -0.0049015004
0.036436915 -0.034968156 -0.0049280883
-0.036298864 -0.02512886 -0.0048744921
0.036349598 -0.024921687 -0.0049307249
-0.036313552 -0.015184831 -0.0050490638
0.036213253 -0.015041916 -0.0052694292
-0.036391217 -0.0050450028 -0.0051352829
0.036189966 -0.0051029469 -0.0052657998
-0.036497343 0.0047886265 -0.0049868319
0.03618639 0.0052538784 -0.0049869642
-0.036581952 0.01509747 -0.0050945356
0.036074359 0.015082242 -0.004903933
-0.036601841 0.025129223 -0.0049426169
0.036063369 0.0249712 -0.0052238354
-0.036463041 0.034892105 -0.0052515934
0.036156353 0.034973767 -0.0050528655
-0.036306646 0.045207366 -0.0051570144
0.036117692 0.045143936 -0.0049689105
-0.032931972 0.05051991 -0.0051064133
-0.025244633 0.050604526 -0.0048519885
-0.014919291 0.050657861 -0.0048065772
-0.0049383948 0.050732847 -0.0051427409
0.004514554 0.05077954 -0.0051026423
0.014730814 0.050822847 -0.0050268848
0.024936309 0.050885234 -0.0049253483
0.032993279 0.050844129 -0.0051065115
-0.034026392 -0.051369362 0.0050794026
-0.024906607 -0.051417872 0.0048894458
-0.014960575 -0.051334217 0.0050402791
-0.0047878153 -0.051266767 0.0050688335
0.0050182738 -0.051216673 0.0053086132
0.01514971 -0.051169995 0.0049676029
0.025287978 -0.051139928 0.0051241643
0.033520512 -0.050992656 0.0051631751
-0.036206815 -0.044848017 0.0052196756
0.036196515 -0.044988383 0.0049441368
-0.036013737 -0.035046604 0.005115347
0.036092367 -0.035027433 0.0050075357
-0.036034048 -0.025039967 0.005099399
0.036054239 -0.024978857 0.0048327991
-0.036077071 -0.014957752 0.0050207474
0.035986844 -0.015117049 0.0049143201
-0.036170237 -0.0049811248 0.0047223484
0.035981905 -0.0048530824 0.0049215616
-0.036162965 0.0050488198 0.0049900692
0.03591308 0.004894034 0.0052757873
-0.036159508 0.015104536 0.0048582535
0.035889961 0.014894358 0.0050484203
-0.036186896 0.025118217 0.0049970252
0.035948642 0.025265744 0.0048523755
-0.036241349 0.034788325 0.004807076
0.036037069 0.035016339 0.0049302052
-0.035964198 0.045311142 0.0050967811
0.036077943 0.044690166 0.0050639417
-0.032822724 0.050301217 0.0041395915
-0.025282847 0.050394759 0.0051146466
-0.014985361 0.050544605 0.0051466515
-0.0052475086 0.050641403 0.0049239458
0.0050477283 0.050706662 0.0049379035
0.015133383 0.0507432 0.0052142753
0.024870412 0.050785307 0.0048392988
0.033351444 0.050728232 0.004590862
-0.032714993 -0.051226616 0.013740665
-0.025057791 -0.05145422 0.014908964
-0.014857739 -0.051369186 0.014724804
-0.0051616682 -0.051304974 0.015003669
0.0048555885 -0.051259384 0.014938241
0.015067591 -0.051218268 0.014708223
0.025100337 -0.051162403 0.014705151
0.032301996 -0.05092831 0.013037776
-0.032948047 -0.045043144 0.015270508
-0.029861392 -0.049583647 0.019784383
0.02982147 -0.049275227 0.019727096
0.033075906 -0.044837732 0.015207632
-0.032905996 -0.034875076 0.015046048
0.033126183 -0.03506694 0.015052072
-0.032878753 -0.02514217 0.015037212
0.032920267 -0.025065001 0.015169055
-0.032805808 -0.014759487 0.015255912
0.032916367 -0.01519373 0.01499653
-0.032844167 -0.0048539261 0.015099558
0.032863762 -0.005081336 0.014976304
-0.032932576 0.0050844387 0.014924854
0.032719038 0.0051676501 0.0153432
-0.032910921 0.014826174 0.014906521
0.033003535 0.015017134 0.014871803
-0.032828938 0.024822401 0.015274454
0.032775577 0.025074175 0.015414923
-0.032975193 0.035186715 0.015152428
0.03315844 0.035004444 0.014783954
-0.032841504 0.045411676 0.015129162
0.033138189 0.044953164 0.015059996
-0.030539995 0.050149746 0.015325094
-0.024712622 0.050348219 0.015277822
-0.015061469 0.050495934 0.014947999
-0.0049518235 0.050583303 0.014803454
0.0048542013 0.050649583 0.014851788
0.015057131 0.050696652 0.01478681
0.024823545 0.050716985 0.014748603
0.032141194 0.050567769 0.013696029
-0.023792896 -0.051196832 0.023128359
-0.01488592 -0.051352654 0.024850944
-0.0048223129 -0.051348224 0.024968468
0.00498064 -0.051292591 0.024975676
0.01476101 -0.051257689 0.024811467
0.023452869 -0.051006254 0.023691855
-0.03011417 -0.044503458 0.020164672
-0.0252677 -0.045024499 0.025129046
-0.019523282 -0.046817936 0.029683514
0.019700516 -0.047614519 0.029861182
0.025265818 -0.045191672 0.025358887
0.030109745 -0.044640325 0.02015393
-0.030171046 -0.033661619 0.020212378
-0.025306964 -0.035216279 0.025361639
-0.019917684 -0.036657568 0.029918635
0.019903054 -0.036029506 0.029958803
0.025082428 -0.034778405 0.025754416
0.03020025 -0.034628399 0.020244794
-0.030205093 -0.025554653 0.020186627
-0.02520882 -0.024904218 0.025553631
-0.019944839 -0.025693791 0.029956741
0.019974355 -0.023664419 0.029989116
0.025259476 -0.025019566 0.025632109
0.030148193 -0.025159433 0.020313308
-0.030125871 -0.0138058 0.020195493
-0.025174014 -0.0150645 0.025684359
0.025353564 -0.015212571 0.025597898
0.030157311 -0.015744869 0.020208154
-0.030140651 -0.0045334781 0.020205889
-0.025645401 -0.0054062605 0.025314385
0.025538851 -0.0050987555 0.025419135
0.030090047 -0.0055237813 0.020095874
-0.030176133 0.0057562361 0.020349901
-0.025669504 0.0047975592 0.025461076
0.025603376 0.0048981989 0.025510918
0.030089039 0.0056366385 0.020172549
-0.030180458 0.014768036 0.02026798
-0.025686417 0.014907603 0.025541343
0.025590248 0.015207723 0.025607368
0.030175976 0.014704972 0.020263826
-0.030251069 0.02479375 0.02032128
-0.025712401 0.024912275 0.025734449
0.02565071 0.024953179 0.025524095
0.030180754 0.025433529 0.020321524
-0.030223412 0.03562589 0.020467959
-0.025777936 0.035031006 0.025724662
0.025892774 0.035005555 0.025394836
0.030286795 0.035043232 0.020333646
-0.03033101 0.044772767 0.020372653
-0.025877405 0.04496954 0.025748327
0.02564784 0.044930607 0.02565752
0.03028664 0.044152021 0.020374324
-0.023686074 0.050441299 0.023768267
-0.015025301 0.050469093 0.024935475
-0.0047470061 0.050538871 0.025003217
0.0049308171 0.05060415 0.024706164
0.015138058 0.050673667 0.025234677
0.023869885 0.050614197 0.023809254
-0.013346019 -0.050871514 0.031534258
-0.0046741557 -0.051213339 0.032732002
0.0049835718 -0.051110279 0.032517202
0.013472233 -0.050993893 0.031593774
-0.014850606 -0.045109797 0.032169823
-0.0049483008 -0.04487269 0.035102144
0.0051506786 -0.044950698 0.03513382
0.014943787 -0.044853482 0.032377116
-0.015249657 -0.035064101 0.032300942
-0.0049014464 -0.034991622 0.035268102
0.0048563904 -0.035135262 0.03535004
0.015141824 -0.034955028 0.032399405
-0.014972102 -0.025238872 0.032539044
-0.0051455162 -0.024694299 0.035377894
0.0048384345 -0.025022799 0.03542209
0.014991432 -0.02499962 0.032620147
-0.020142389 -0.013522132 0.03006354
-0.014848365 -0.014990336 0.032718223
-0.00485801 -0.014980827 0.035516478
0.0049059512 -0.014998103 0.035546102
0.015225965 -0.015174813 0.032623935
0.020157963 -0.011784625 0.030140391
-0.020245032 -0.0060696602 0.030099185
-0.015274514 -0.005054866 0.032649048
-0.0052831047 -0.0053048409 0.035560042
0.0051954286 -0.0050016195 0.035631798
0.015221549 -0.0049935314 0.032734446
0.02019411 -0.0048141833 0.030222058
-0.020313088 0.0053432421 0.0301675
-0.015106178 0.0049709072 0.032919012
-0.0049571577 0.0050752317 0.035742216
0.0048324047 0.0050792228 0.035778627
0.015027706 0.0050699217 0.03297326
0.020293646 0.0050425702 0.030190077
-0.020373369 0.015276393 0.030205797
-0.015288587 0.015031175 0.032959267
-0.0050103725 0.014861487 0.035889629
0.0047730729 0.015055959 0.035894398
0.014991504 0.014772353 0.0330365
0.020392735 0.015573787 0.03025768
-0.020525644 0.024934568 0.030343553
-0.015236909 0.024966139 0.033082113
-0.0050709243 0.025103396 0.035982512
0.0050346698 0.024888525 0.03597267
0.01508422 0.025074527 0.033060987
0.020388737 0.025754223 0.03019808
-0.02062455 0.034629457 0.030383153
-0.015098032 0.035131283 0.033257924
-0.0048084254 0.035307765 0.036065545
0.0048704208 0.035110123 0.036074236
0.015218215 0.035090022 0.033044595
0.020486459 0.035173152 0.030268358
-0.020584138 0.044367641 0.03037983
-0.01525077 0.044908341 0.033167433
-0.0050429776 0.04502333 0.036062714
0.0050135637 0.045092847 0.036047257
0.015368802 0.045125548 0.03295118
0.020406153 0.044071071 0.030258894
-0.01297163 0.05038029 0.032210521
-0.0050168708 0.05043349 0.033025149
0.0043965806 0.050530385 0.032894377
0.013606101 0.050537229 0.032102827
